-0.378052 -0.0735274 -0.0039052
-0.385713 -0.0718513 -0.00766835
-0.295277 -0.0901893 -0.008414
-0.283952 -0.0922584 -0.0128629
-0.272699 -0.0957975 -0.011099
-0.270958 -0.0962632 -0.00714056
-0.282539 -0.0933607 -0.00421974
-0.299263 -0.0369419 -0.0573961
-0.285504 -0.0310577 -0.0570278
-0.272994 -0.0387063 -0.0576704
-0.287313 -0.0445322 -0.0569978
-0.28464 -0.0890269 -0.0216955
-0.297319 -0.0831104 -0.0277352
-0.285344 -0.0817773 -0.0338601
-0.27173 -0.0884544 -0.0287116
-0.273363 -0.0915364 -0.0231917
-0.350313 -0.0482483 -0.054202
-0.338834 -0.0471935 -0.055693
-0.327418 -0.0526248 -0.0532822
-0.339284 -0.0524948 -0.0519565
-0.297008 0.00912749 -0.0286919
-0.284686 0.0135838 -0.022859
-0.2724 0.0113034 -0.0288444
-0.284613 0.0060488 -0.0346974
-0.348361 -0.0122419 -0.0481364
-0.335515 -0.00629889 -0.0441663
-0.322452 -0.011522 -0.0487723
-0.335669 -0.0177186 -0.0520824
-0.382135 -0.00073063 -0.032951
-0.391748 0.00112962 -0.0270242
-0.381878 0.00442729 -0.0212352
-0.371605 0.00322965 -0.027641
-0.382371 -0.0353876 -0.0565448
-0.391979 -0.0310743 -0.0555256
-0.382351 -0.0273818 -0.0550346
-0.37194 -0.032087 -0.0567429
-0.42017 -0.0142164 -0.0446809
-0.414305 -0.0100401 -0.040979
-0.407905 -0.0139514 -0.0454258
-0.414379 -0.0183473 -0.0482947
-0.420216 -0.0415187 -0.0482506
-0.414419 -0.039581 -0.0513426
-0.40798 -0.0429109 -0.0500004
-0.414413 -0.0444768 -0.0458278
-0.436684 -0.00543408 -0.030546
-0.441922 -0.00400497 -0.0248993
-0.436682 -0.00179835 -0.0195751
-0.431311 -0.00274829 -0.0254687
-0.43674 -0.0310557 -0.0564492
-0.441623 -0.0274399 -0.0593455
-0.436739 -0.0247071 -0.0559439
-0.431399 -0.0286343 -0.0547961
-0.455187 -0.0104942 -0.0389201
-0.450786 -0.0129391 -0.0448019
-0.455181 -0.0131735 -0.0449697
-0.454949 -0.0339672 -0.0613852
-0.45684 -0.035677 -0.0529623
-0.45891 -0.0355746 -0.0562624
-0.474971 -0.00897162 -0.0277178
-0.478399 -0.00891323 -0.0217305
-0.47445 -0.00726913 -0.0174194
-0.47061 -0.00703079 -0.0226851
-0.472353 -0.0292308 -0.12886
-0.472679 -0.0298089 -0.12886
-0.473505 -0.0301596 -0.12886
-0.474175 -0.0296241 -0.12886
-0.47433 -0.0290073 -0.12886
-0.474191 -0.0285751 -0.12886
-0.473518 -0.0282088 -0.12886
-0.47266 -0.0285984 -0.12886
-0.490257 -0.0142086 -0.0210546
-0.491721 -0.0156009 -0.0238381
-0.493514 -0.0160882 -0.0182981
-0.47445 -0.0368253 -0.0173791
-0.478399 -0.0346745 -0.0217007
-0.474971 -0.0360343 -0.0276688
-0.47061 -0.0381123 -0.0226377
-0.491751 -0.0284384 -0.0445839
-0.488491 -0.0298285 -0.0469823
-0.490887 -0.0287362 -0.0358011
-0.346454 -0.066189 -0.0397235
-0.33757 -0.0640252 -0.0420185
-0.32587 -0.0656994 -0.0434168
-0.336201 -0.068445 -0.0393909
-0.381753 -0.0502361 -0.0429889
-0.370745 -0.0519158 -0.0421045
-0.379577 -0.0517498 -0.0337804
-0.391724 -0.050217 -0.0348847
-0.43658 -0.045581 -0.0217544
-0.441939 -0.0442964 -0.0264924
-0.436714 -0.0443427 -0.0332306
-0.431385 -0.0458896 -0.0288802
-0.336537 -0.0289279 -0.0565155
-0.324783 -0.0351695 -0.0573036
-0.338006 -0.0392443 -0.0574041
-0.349394 -0.0334602 -0.0573231
-0.336136 -0.0735915 -0.0320113
-0.323845 -0.0779713 -0.0276227
-0.335943 -0.0786892 -0.0218239
-0.34712 -0.075026 -0.0261577
-0.335486 0.00883984 -0.022532
-0.322426 0.00707701 -0.028456
-0.335488 0.00271085 -0.0340806
-0.348282 0.00522614 -0.0281256
-0.414261 0.000860816 -0.0203648
-0.407814 -0.000476388 -0.0264668
-0.414264 -0.00351596 -0.0316117
-0.4201 -0.00158219 -0.0259831
-0.414425 -0.0262888 -0.0525412
-0.408013 -0.0302967 -0.0541589
-0.414435 -0.03346 -0.0535517
-0.420245 -0.0296499 -0.0531212
-0.456872 -0.00407139 -0.018616
-0.452081 -0.00497333 -0.0242344
-0.45692 -0.00682808 -0.0288121
-0.461757 -0.00572078 -0.0234768
-0.452019 -0.0262732 -0.0679545
-0.4491 -0.0277069 -0.0653553
-0.452019 -0.0305165 -0.0681627
-0.453688 -0.0293665 -0.0727114
-0.461757 -0.040824 -0.0235388
-0.45692 -0.0412766 -0.0291051
-0.452083 -0.0426442 -0.0246502
-0.456872 -0.0421551 -0.0186845
-0.484212 -0.0107354 -0.0195883
-0.4869 -0.0120327 -0.0195157
-0.486426 -0.0114945 -0.0153056
-0.493761 -0.0232376 -0.0478737
-0.491331 -0.0256458 -0.0611346
-0.493761 -0.0262983 -0.0478734
-0.496616 -0.0240522 -0.0347931
-0.484212 -0.0321533 -0.0195795
-0.486426 -0.0315757 -0.0153027
-0.4869 -0.0308519 -0.0195094
-0.420434 -0.0473535 -0.0301818
-0.414617 -0.047378 -0.0364735
-0.408463 -0.0487163 -0.0308112
-0.414976 -0.0483732 -0.0239796
-0.342119 -0.0626756 -0.0225765
-0.348306 -0.0626901 -0.032103
-0.368904 -0.0635593 -0.0248163
-0.378859 -0.064003 -0.0148313
-0.359143 -0.0640067 -0.0103201
-0.387876 -0.066971 -0.0211895
-0.377924 -0.0653156 -0.0272574
-0.367564 -0.066586 -0.0322491
-0.377244 -0.0684023 -0.0258074
-0.382355 -0.0420009 -0.0549051
-0.372016 -0.0455392 -0.0536932
-0.382255 -0.0471042 -0.0502058
-0.391947 -0.044181 -0.0519365
-0.436733 -0.0366779 -0.0521278
-0.431378 -0.0400043 -0.0478132
-0.43672 -0.041391 -0.0434491
-0.441757 -0.0385304 -0.0482683
-0.464528 -0.0365897 -0.067655
-0.463428 -0.0366895 -0.0588806
-0.466968 -0.0377674 -0.0586909
-0.484679 -0.0177274 -0.05742
-0.482444 -0.0171988 -0.0581321
-0.483693 -0.0194647 -0.0673347
-0.441748 -0.014135 -0.0467279
-0.436699 -0.0108877 -0.0410171
-0.431355 -0.0143119 -0.0452702
-0.436724 -0.0178768 -0.0506117
-0.391853 -0.0135168 -0.0463788
-0.382189 -0.00842628 -0.0427139
-0.371709 -0.0129243 -0.0473291
-0.382287 -0.0182281 -0.0503744
-0.296965 -0.0110105 -0.0492063
-0.284572 -0.00449984 -0.0449812
-0.272122 -0.0107097 -0.049445
-0.28467 -0.0175644 -0.0529361
-0.305046 -0.0646301 -0.0469757
-0.305218 -0.0589904 -0.0510431
-0.290589 -0.0572664 -0.0529604
-0.276723 -0.0660816 -0.0493504
-0.290343 -0.0704888 -0.0446364
-0.237423 0.0194116 -0.00310741
-0.227017 0.0202048 -0.00530849
-0.236924 0.019935 -0.00902013
-0.248979 0.0196457 -0.0071164
0.0845413 -0.0904962 -0.0442471
0.0748162 -0.0945144 -0.0449686
0.0657639 -0.0986746 -0.0473707
0.0748135 -0.0932846 -0.0459623
0.122452 -0.0803961 -0.0379823
0.112117 -0.0825613 -0.038671
0.103318 -0.0845243 -0.0411235
0.112115 -0.0813402 -0.03967
0.0420486 -0.107982 -0.0462613
0.0503283 -0.0980748 -0.0414165
0.0406367 -0.102858 -0.0424557
0.0717795 -0.0915311 -0.0413112
0.0739374 -0.0861064 -0.0373953
0.0644113 -0.090282 -0.0390715
0.0717742 -0.0888908 -0.0434375
0.0644058 -0.0874582 -0.0413352
0.0739321 -0.0832879 -0.0396622
0.117026 -0.0719707 -0.0330509
0.107384 -0.07732 -0.0371102
0.091099 -0.0768196 -0.0358905
0.0991087 -0.0706783 -0.0320227
0.161188 0.0335428 -0.00319312
0.157007 0.0261121 -0.00365028
0.151101 0.0316737 -0.00360748
0.1814 -0.0718519 -0.00537093
0.1661 -0.0748879 -0.00590007
0.171849 -0.0702432 -0.00634746
0.161221 -0.0888367 0.00488398
0.156541 -0.0829343 0.00565993
0.151669 -0.0872587 0.0055665
0.182306 0.0136411 0.00332741
0.167095 0.0166166 0.00376471
0.172397 0.0116326 0.00411144
0.0420436 -0.105327 0.0483788
0.0503229 -0.0952437 0.0436756
0.0406313 -0.100025 0.0447142
0.0717742 -0.0888908 0.0434375
0.0739321 -0.0832879 0.0396622
0.0644058 -0.0874582 0.0413352
0.0717795 -0.0915311 0.0413112
0.0644113 -0.090282 0.0390715
0.0739374 -0.0861064 0.0373953
0.117032 -0.0747591 0.0307656
0.10739 -0.079941 0.0349721
0.091105 -0.0796274 0.0336176
0.099116 -0.0745116 0.0289886
0.0281318 -0.119857 0.0530276
0.038044 -0.114857 0.0510882
0.0469867 -0.10906 0.0504943
0.0380417 -0.113619 0.0520768
0.0657639 -0.0986746 0.0473707
0.0748162 -0.0945144 0.0449686
0.0845413 -0.0904962 0.0442471
0.0748135 -0.0932846 0.0459623
-0.0953267 0.150691 -0.00275723
-0.0956644 0.149531 -0.00262727
-0.0966846 0.149595 -0.00362844
-0.0957544 0.149317 -0.000907678
-0.0957544 0.149317 0.000907678
-0.0960313 0.147695 -2.31498e-020
-0.0888658 0.196798 -0.00259201
-0.0896865 0.202311 -0.00177336
-0.0882566 0.196868 -0.000901953
-0.0875513 0.190153 -0.00184758
-0.221284 0.0203957 0.0132926
-0.232536 0.020359 0.0129044
-0.232351 0.0201225 0.0156188
-0.335449 -0.0575678 -0.041616
-0.331015 -0.0563017 -0.0486697
-0.318161 -0.0579142 -0.0497312
-0.317868 -0.0624018 -0.046035
-0.333002 -0.0619019 -0.0404117
-0.335552 -0.060096 -0.0338685
-0.351533 -0.0521808 -0.0502475
-0.36202 -0.0519878 -0.0469635
-0.371956 -0.0497107 -0.0481758
-0.361476 -0.0490481 -0.0519134
-0.363504 -0.0639854 -0.0327774
-0.351372 -0.06358 -0.0372307
-0.356958 -0.0647665 -0.037217
-0.391714 -0.048264 -0.045561
-0.40045 -0.0488014 -0.0390961
-0.408013 -0.046888 -0.0427438
-0.400457 -0.0458223 -0.0478981
-0.420289 -0.0454845 -0.0408065
-0.425947 -0.0459554 -0.0351573
-0.431376 -0.0439679 -0.0395797
-0.425877 -0.0430266 -0.0445864
-0.43092 -0.0466536 -0.0164908
-0.425891 -0.0470229 -0.02392
-0.420416 -0.0479805 -0.0186526
-0.425486 -0.0475241 -0.0120301
-0.3962 -0.0510524 -0.0152312
-0.408149 -0.0494046 -0.0181162
-0.400404 -0.0498895 -0.025385
-0.387051 -0.0517257 -0.0235132
-0.481368 -0.0344088 -0.00585023
-0.484228 -0.0329742 -0.0108228
-0.481303 -0.0339598 -0.0161465
-0.478018 -0.0356635 -0.0116433
-0.485125 -0.0312002 -0.0426197
-0.481524 -0.0333364 -0.0447695
-0.479008 -0.0340024 -0.0344001
-0.482033 -0.0325461 -0.0258906
-0.486136 -0.0306259 -0.0255026
-0.48759 -0.0298876 -0.031123
-0.49027 -0.0296576 -0.0159011
-0.489327 -0.0304666 -0.0107877
-0.4919 -0.0293613 -0.00581517
-0.493243 -0.0285343 -0.0118136
-0.485719 -0.0323156 -0.0743328
-0.48731 -0.0307593 -0.0623904
-0.490359 -0.0286914 -0.059368
-0.489086 -0.0281034 -0.0717539
-0.487002 -0.0304842 -0.0808918
-0.489086 -0.0243368 -0.0717545
-0.490359 -0.0220495 -0.0593694
-0.48731 -0.0201091 -0.062394
-0.485719 -0.0214188 -0.0743341
-0.487002 -0.0232635 -0.0808918
-0.495608 -0.0209753 -0.0338259
-0.498225 -0.0221021 -0.0220696
-0.498666 -0.0203605 -0.0101394
-0.496616 -0.018412 -0.0160475
-0.494864 -0.0183523 -0.0259067
-0.496616 -0.0267931 -0.0160462
-0.498666 -0.0254677 -0.0101392
-0.498225 -0.0247038 -0.0220694
-0.495608 -0.0264679 -0.0338244
-0.494864 -0.0272533 -0.0259031
-0.486136 -0.0124053 -0.0255143
-0.482033 -0.0106481 -0.0259104
-0.479008 -0.0113243 -0.0344301
-0.481524 -0.0141225 -0.044786
-0.485125 -0.0149388 -0.0426313
-0.48759 -0.0142086 -0.0311343
-0.481303 -0.00939859 -0.0161585
-0.484228 -0.0103025 -0.0108249
-0.481368 -0.00902773 -0.00585148
-0.478018 -0.00801578 -0.011658
-0.4919 -0.0143579 -0.00581514
-0.489327 -0.0128908 -0.0107885
-0.49027 -0.0136969 -0.0159041
-0.493243 -0.0154293 -0.0118146
-0.441847 -0.0422959 -0.0372175
-0.446968 -0.0427136 -0.0309512
-0.451453 -0.0411212 -0.0350767
-0.446399 -0.0402058 -0.0414644
-0.463718 -0.0376162 -0.047131
-0.460818 -0.0379266 -0.0424394
-0.460989 -0.039757 -0.0340748
-0.466349 -0.0393183 -0.0286169
-0.471042 -0.0378143 -0.0355282
-0.468465 -0.038333 -0.0462287
-0.466045 -0.0397918 -0.0181622
-0.461417 -0.0412746 -0.0128385
-0.465807 -0.0401826 -0.00661031
-0.470179 -0.0386297 -0.0124033
-0.446987 -0.0440115 -0.0196185
-0.441466 -0.0452119 -0.0140332
-0.446535 -0.0445688 -0.00678178
-0.451915 -0.0434328 -0.0130099
-0.450613 -0.0324938 -0.0624289
-0.44601 -0.0303805 -0.061565
-0.441842 -0.0334206 -0.056949
-0.446467 -0.0358629 -0.0532686
-0.451736 -0.0349451 -0.0548205
-0.446463 -0.0166917 -0.0521905
-0.441839 -0.0207227 -0.0559866
-0.44601 -0.0241033 -0.0611129
-0.450613 -0.0220671 -0.0618782
-0.451736 -0.0175269 -0.0541285
-0.460747 -0.0247945 -0.0751054
-0.459008 -0.022903 -0.0662316
-0.455158 -0.025527 -0.0694031
-0.455731 -0.0285914 -0.0765954
-0.458353 -0.0275704 -0.0816618
-0.455731 -0.0312501 -0.0766034
-0.455158 -0.0324225 -0.0695313
-0.459008 -0.0345444 -0.0662848
-0.460747 -0.0346431 -0.0751074
-0.458353 -0.0329211 -0.0816652
-0.446395 -0.010967 -0.0403307
-0.451452 -0.00853137 -0.0343588
-0.44696 -0.00645095 -0.0298741
-0.441833 -0.00842241 -0.0354684
-0.447045 -0.00296647 -0.0190029
-0.45198 -0.00251079 -0.0129312
-0.44699 -0.00129275 -0.00672586
-0.441913 -0.0013022 -0.0132509
-0.466045 -0.00536439 -0.0181738
-0.470179 -0.00562275 -0.0124413
-0.465807 -0.00427458 -0.00663482
-0.461417 -0.0039001 -0.0128402
-0.463718 -0.0142098 -0.0470972
-0.468465 -0.0129728 -0.0462678
-0.471042 -0.0100756 -0.0355733
-0.466349 -0.00769557 -0.0286181
-0.460989 -0.00882556 -0.0338831
-0.460818 -0.0122611 -0.0422177
-0.384359 -0.071595 -0.0151614
-0.391351 -0.0701905 -0.011423
-0.392072 -0.0685637 -0.01593
-0.383996 -0.0699096 -0.0198885
-0.385427 -0.0647083 -0.0202248
-0.394156 -0.0657811 -0.0163302
-0.391531 -0.0648806 -0.0145276
-0.400516 -0.0408814 -0.0532438
-0.408012 -0.0373077 -0.0537822
-0.400532 -0.0344722 -0.0551765
-0.39198 -0.0383735 -0.0554253
-0.400514 -0.0265729 -0.0537277
-0.40798 -0.0223305 -0.0513174
-0.400457 -0.0180732 -0.0492633
-0.391939 -0.02255 -0.0524662
-0.420223 -0.0224504 -0.0506146
-0.425897 -0.0258793 -0.0527817
-0.43139 -0.021955 -0.0519453
-0.425866 -0.0184581 -0.0481909
-0.431395 -0.0346712 -0.0530201
-0.425899 -0.0323285 -0.0533512
-0.420239 -0.0359774 -0.0522001
-0.425887 -0.0381588 -0.0502872
-0.400362 -0.00961711 -0.0418971
-0.407832 -0.00628348 -0.0369748
-0.400314 -0.00256023 -0.0323232
-0.391772 -0.00521019 -0.0377389
-0.400184 0.00248737 -0.0206669
-0.407689 0.00312828 -0.0140768
-0.399425 0.00499494 -0.00728848
-0.390864 0.00505032 -0.0143669
-0.425783 -0.00053203 -0.0200814
-0.431311 1.86162e-006 -0.0137466
-0.425784 0.00142595 -0.00722149
-0.4201 0.00140151 -0.0140098
-0.43132 -0.00735988 -0.0360269
-0.425787 -0.00425803 -0.0310155
-0.420118 -0.00668863 -0.0361857
-0.425815 -0.0102873 -0.0407385
-0.309594 -0.00556653 -0.0446914
-0.322435 -0.000992765 -0.0396495
-0.309599 0.00414937 -0.0344914
-0.296982 0.000290422 -0.0399998
-0.29704 0.0145616 -0.0173841
-0.309603 0.0111851 -0.0226777
-0.32243 0.0121039 -0.0172625
-0.309622 0.0145658 -0.0124777
-0.348158 0.00942628 -0.0169609
-0.360198 0.00654153 -0.0220258
-0.37072 0.00720364 -0.0151728
-0.359437 0.00936876 -0.0106366
-0.371627 -0.00326551 -0.0384005
-0.360326 0.00128529 -0.0335378
-0.348295 -0.00189089 -0.0390462
-0.360369 -0.00710259 -0.0434623
-0.308791 -0.0867809 -0.0124885
-0.322456 -0.0829182 -0.0169484
-0.309518 -0.0835208 -0.0220361
-0.296111 -0.088313 -0.0170709
-0.312425 -0.0764019 -0.0335859
-0.325502 -0.0714636 -0.0375058
-0.314965 -0.068425 -0.0425389
-0.301374 -0.0738323 -0.0392986
-0.356773 -0.0683129 -0.0344316
-0.346296 -0.0706476 -0.0343524
-0.355893 -0.0721956 -0.0291003
-0.365935 -0.0699876 -0.0289835
-0.368456 -0.0749099 -0.0156746
-0.358052 -0.0754331 -0.0205185
-0.348316 -0.0782208 -0.0167628
-0.359569 -0.0770998 -0.012139
-0.315728 -0.0523622 -0.0542061
-0.326832 -0.0456753 -0.0563679
-0.313642 -0.042258 -0.0569357
-0.30236 -0.0496647 -0.0554446
-0.310755 -0.0296055 -0.0568062
-0.32289 -0.0231977 -0.055035
-0.3097 -0.0172252 -0.0525986
-0.297384 -0.0237371 -0.0553504
-0.348794 -0.0236463 -0.0544346
-0.360884 -0.0284357 -0.0559881
-0.371848 -0.0233584 -0.0536719
-0.360518 -0.0183118 -0.0513725
-0.371994 -0.0395004 -0.0566737
-0.361007 -0.0366535 -0.0574797
-0.349971 -0.041689 -0.0571298
-0.361308 -0.0437873 -0.0558928
-0.259489 -0.0324479 -0.0572596
-0.272454 -0.0248663 -0.0556276
-0.259378 -0.0179771 -0.0531378
-0.245959 -0.0255854 -0.0557686
-0.261094 -0.0608896 -0.0530878
-0.274788 -0.0522794 -0.0555814
-0.259735 -0.0465859 -0.0572486
-0.246003 -0.0550715 -0.0557495
-0.263249 -0.0867643 -0.0341403
-0.274192 -0.0793438 -0.039626
-0.260892 -0.0755158 -0.0449608
-0.245341 -0.0838951 -0.0407403
-0.251628 -0.0884671 -0.0352589
-0.259749 0.0157284 -0.0229713
-0.272164 0.0171798 -0.0174043
-0.260169 0.0193128 -0.0119206
-0.246195 0.0199527 -0.0134908
-0.245818 0.0187086 -0.0185891
-0.259446 -0.00355103 -0.0451207
-0.272225 0.00192871 -0.040167
-0.259986 0.00769991 -0.0348133
-0.247 0.00301242 -0.0402569
-0.467741 -0.0373337 -0.0750694
-0.470508 -0.0380129 -0.0659729
-0.473295 -0.0382552 -0.0736275
-0.470751 -0.0380261 -0.0814396
-0.477594 -0.0380373 -0.0736115
-0.479829 -0.0365442 -0.0657623
-0.481669 -0.0360585 -0.074956
-0.479659 -0.0375674 -0.0814236
-0.481669 -0.0202748 -0.0749586
-0.479829 -0.0182918 -0.0657708
-0.477594 -0.0193813 -0.0736181
-0.479659 -0.0206172 -0.0814243
-0.473295 -0.0195352 -0.0736348
-0.470508 -0.0184387 -0.0659918
-0.467741 -0.0214701 -0.0750774
-0.470751 -0.021308 -0.0814416
-0.487222 -0.0249068 -0.0988808
-0.486516 -0.0234918 -0.0933847
-0.48525 -0.0224252 -0.0988808
-0.486516 -0.0234918 -0.104167
-0.48164 -0.0212343 -0.0988808
-0.479668 -0.0209039 -0.0933847
-0.477697 -0.0207161 -0.0988808
-0.479668 -0.0209039 -0.104167
-0.473629 -0.0209293 -0.0988808
-0.47099 -0.0216541 -0.0933847
-0.468035 -0.022845 -0.0988808
-0.47099 -0.0216541 -0.104167
-0.461608 -0.0262939 -0.0988808
-0.459241 -0.0278896 -0.0933847
-0.457985 -0.0292891 -0.0988808
-0.459241 -0.0278896 -0.104167
-0.457985 -0.0316508 -0.0988808
-0.459241 -0.0329155 -0.0933847
-0.461608 -0.0342865 -0.0988808
-0.459241 -0.0329155 -0.104167
-0.468035 -0.0370976 -0.0988808
-0.47099 -0.0380377 -0.0933847
-0.473629 -0.0385841 -0.0988808
-0.47099 -0.0380377 -0.104167
-0.477697 -0.0384452 -0.0988808
-0.479668 -0.037658 -0.0933847
-0.48164 -0.0363754 -0.0988808
-0.479668 -0.037658 -0.104167
-0.48525 -0.0325825 -0.0988808
-0.486516 -0.0305897 -0.0933847
-0.487222 -0.0286189 -0.0988808
-0.486516 -0.0305897 -0.104167
-0.467363 -0.0370976 -0.117324
-0.470692 -0.0380377 -0.113749
-0.473209 -0.0385841 -0.117324
-0.470311 -0.0380377 -0.119968
-0.477564 -0.0384452 -0.117324
-0.479658 -0.037658 -0.113749
-0.481685 -0.0363754 -0.117324
-0.47957 -0.037658 -0.119968
-0.485567 -0.0325825 -0.117324
-0.486777 -0.0305897 -0.113749
-0.487628 -0.0286189 -0.117324
-0.486895 -0.0305897 -0.119968
-0.487628 -0.0249068 -0.117324
-0.486777 -0.0234918 -0.113749
-0.485567 -0.0224252 -0.117324
-0.486895 -0.0234918 -0.119968
-0.481685 -0.0212343 -0.117324
-0.479658 -0.0209039 -0.113749
-0.477564 -0.0207161 -0.117324
-0.47957 -0.0209039 -0.119968
-0.473209 -0.0209293 -0.117324
-0.470692 -0.0216541 -0.113749
-0.467363 -0.022845 -0.117324
-0.470311 -0.0216541 -0.119968
-0.460442 -0.0262939 -0.117324
-0.45845 -0.0278896 -0.113749
-0.456656 -0.0292891 -0.117324
-0.457729 -0.0278896 -0.119968
-0.456656 -0.0316508 -0.117324
-0.45845 -0.0329155 -0.113749
-0.460442 -0.0342865 -0.117324
-0.457729 -0.0329155 -0.119968
-0.472675 -0.0209293 -0.124036
-0.469973 -0.0216541 -0.122894
-0.466584 -0.022845 -0.124036
-0.469783 -0.0216541 -0.125109
-0.459371 -0.0262939 -0.124036
-0.457098 -0.0278896 -0.122894
-0.455426 -0.0292891 -0.124036
-0.45679 -0.0278896 -0.125109
-0.455426 -0.0316508 -0.124036
-0.457098 -0.0329155 -0.122894
-0.459371 -0.0342865 -0.124036
-0.45679 -0.0329155 -0.125109
-0.466584 -0.0370976 -0.124036
-0.469973 -0.0380377 -0.122894
-0.472675 -0.0385841 -0.124036
-0.469783 -0.0380377 -0.125109
-0.477213 -0.0384452 -0.124036
-0.479415 -0.037658 -0.122894
-0.481507 -0.0363754 -0.124036
-0.479327 -0.037658 -0.125109
-0.485553 -0.0325825 -0.124036
-0.486905 -0.0305897 -0.122894
-0.4877 -0.0286189 -0.124036
-0.486889 -0.0305897 -0.125109
-0.4877 -0.0249068 -0.124036
-0.486905 -0.0234918 -0.122894
-0.485553 -0.0224252 -0.124036
-0.486889 -0.0234918 -0.125109
-0.481507 -0.0212343 -0.124036
-0.479415 -0.0209039 -0.122894
-0.477213 -0.0207161 -0.124036
-0.479327 -0.0209039 -0.125109
-0.485153 -0.0324279 -0.127706
-0.486777 -0.0305768 -0.126994
-0.487204 -0.0286702 -0.127706
-0.485865 -0.030475 -0.128248
-0.487204 -0.0250139 -0.127706
-0.486777 -0.0235347 -0.126994
-0.485153 -0.0226612 -0.127706
-0.485865 -0.023902 -0.128248
-0.481154 -0.0214963 -0.127706
-0.479263 -0.0209728 -0.126994
-0.477053 -0.021005 -0.127706
-0.478838 -0.0215336 -0.128248
-0.472591 -0.0212061 -0.127706
-0.469796 -0.0217109 -0.126994
-0.466772 -0.0230223 -0.127706
-0.470064 -0.0221973 -0.128248
-0.459634 -0.0264287 -0.127706
-0.456878 -0.0279038 -0.126994
-0.455866 -0.0292683 -0.127706
-0.457947 -0.0280042 -0.128248
-0.455866 -0.0315813 -0.127706
-0.456878 -0.032881 -0.126994
-0.459634 -0.03408 -0.127706
-0.457947 -0.0326123 -0.128248
-0.466772 -0.0368554 -0.127706
-0.469796 -0.0379675 -0.126994
-0.472591 -0.0382647 -0.127706
-0.470064 -0.0373786 -0.128248
-0.477053 -0.0381309 -0.127706
-0.479263 -0.0375929 -0.126994
-0.481154 -0.0361686 -0.127706
-0.478838 -0.0370374 -0.128248
-0.359812 -0.0536129 -0.0419476
-0.353433 -0.0549202 -0.0391501
-0.364685 -0.053681 -0.0356387
-0.208259 0.0164886 -0.0233069
-0.222437 0.0188185 -0.0189281
-0.207864 0.020007 -0.0153159
-0.188856 0.0185424 -0.0186676
-0.19733 -0.0974456 -0.0343563
-0.211482 -0.0953631 -0.0351548
-0.217988 -0.088387 -0.0407578
-0.201822 -0.0838597 -0.0450944
-0.182044 -0.0923325 -0.0402376
-0.201701 -0.0669964 -0.0531723
-0.217226 -0.0574529 -0.0557701
-0.201701 -0.0507682 -0.0573293
-0.182273 -0.0601788 -0.0557685
-0.201768 -0.0350007 -0.0573366
-0.217494 -0.0263375 -0.0557856
-0.202437 -0.0189583 -0.0531968
-0.182541 -0.0280888 -0.055784
-0.204276 -0.00273943 -0.0451743
-0.220306 0.00405303 -0.0402686
-0.205922 0.00935715 -0.0348528
-0.185338 0.00335432 -0.040267
-0.265299 -0.0954165 -0.0218653
-0.26336 -0.0931051 -0.0249216
-0.256776 -0.0968591 -0.0228929
-0.259428 -0.0991477 -0.0214113
-0.2685 -0.0972668 -0.0147522
-0.275391 -0.0934514 -0.0172201
-0.26874 -0.0955326 -0.0196952
-0.264521 -0.100227 -0.0186936
-0.264519 -0.100715 -0.0173823
-0.256747 -0.10086 -0.0100467
-0.263072 -0.0985359 -0.00878045
-0.265021 -0.098734 -0.0116269
-0.259418 -0.101851 -0.0126397
-0.196475 -0.109979 -0.00961184
-0.206662 -0.109301 -0.0111007
-0.205668 -0.11002 -0.0134244
-0.196065 -0.109969 -0.0143054
-0.181091 -0.110664 -0.0121038
-0.196058 -0.108928 -0.0172476
-0.205637 -0.10823 -0.0184692
-0.206636 -0.105853 -0.0210009
-0.196463 -0.104598 -0.0239016
-0.181081 -0.107711 -0.0201554
-0.237744 -0.0997422 -0.0251895
-0.244134 -0.101655 -0.0233809
-0.247362 -0.0980948 -0.02413
-0.243288 -0.0959076 -0.0272718
-0.216588 -0.103495 -0.0232404
-0.219043 -0.105551 -0.0221549
-0.22474 -0.10586 -0.0230425
-0.227994 -0.1017 -0.025073
-0.22046 -0.100203 -0.0269723
-0.228028 -0.106948 -0.00843829
-0.224806 -0.10948 -0.0111908
-0.219106 -0.109132 -0.0105324
-0.21662 -0.108033 -0.00893452
-0.22048 -0.107089 -0.00661743
-0.247376 -0.102826 -0.00875583
-0.244174 -0.105463 -0.0108123
-0.237767 -0.105075 -0.00834694
-0.243294 -0.102814 -0.00640655
-0.257263 -0.12462 -0.0273711
-0.251189 -0.12822 -0.0285682
-0.250637 -0.133261 -0.0303149
-0.258215 -0.134586 -0.0308167
-0.261411 -0.129139 -0.0285411
-0.257916 -0.105888 -0.022288
-0.251766 -0.107392 -0.0231117
-0.249021 -0.11248 -0.0238694
-0.256037 -0.115724 -0.0245229
-0.259468 -0.111831 -0.0228105
-0.260242 -0.106916 -0.0216543
-0.211084 -0.109825 -0.0188422
-0.212732 -0.111662 -0.0184856
-0.215739 -0.11184 -0.020062
-0.21446 -0.109428 -0.0202083
-0.222169 -0.114666 -0.0218603
-0.22466 -0.117977 -0.0222881
-0.230161 -0.11977 -0.0240402
-0.233605 -0.115398 -0.0237172
-0.2265 -0.112627 -0.022854
-0.232353 -0.131849 -0.0282516
-0.237617 -0.128276 -0.0276921
-0.233028 -0.125866 -0.0262062
-0.230449 -0.129493 -0.0266841
-0.228274 -0.143555 -0.0323477
-0.234844 -0.139048 -0.0314149
-0.230196 -0.13786 -0.0303249
-0.22629 -0.141638 -0.0308906
-0.218764 -0.153807 -0.0357828
-0.227964 -0.150632 -0.0354049
-0.223448 -0.149537 -0.0343856
-0.217154 -0.152979 -0.0347547
-0.213991 -0.156997 -0.0368524
-0.222131 -0.154844 -0.0367712
-0.216053 -0.155586 -0.0363775
-0.211467 -0.157166 -0.0361657
-0.211282 -0.159621 -0.0380195
-0.21905 -0.1574 -0.0377305
-0.211978 -0.158643 -0.0374327
-0.207711 -0.160287 -0.0373523
-0.213418 -0.162302 -0.0394757
-0.219965 -0.158981 -0.0389135
-0.211872 -0.160296 -0.0387297
-0.208828 -0.162344 -0.0388177
-0.220101 -0.16963 -0.0416467
-0.225795 -0.164936 -0.0406103
-0.216286 -0.166083 -0.040439
-0.214072 -0.169508 -0.0408282
-0.222579 -0.180541 -0.0456248
-0.22968 -0.17505 -0.0443394
-0.22241 -0.17375 -0.0433095
-0.218505 -0.178182 -0.0441358
-0.220668 -0.194953 -0.0500985
-0.226222 -0.191638 -0.0495497
-0.222545 -0.188123 -0.0480072
-0.218955 -0.192014 -0.0485468
-0.219395 -0.200746 -0.0518078
-0.219219 -0.199062 -0.0512806
-0.217511 -0.200263 -0.051074
-0.222748 -0.203557 -0.0527682
-0.221122 -0.20286 -0.0525095
-0.220683 -0.204229 -0.052388
-0.229574 -0.2033 -0.0528661
-0.226747 -0.20386 -0.0529663
-0.228158 -0.204699 -0.0527284
-0.237986 -0.199213 -0.0518122
-0.235323 -0.201012 -0.0523044
-0.238467 -0.200512 -0.0516942
-0.246849 -0.186253 -0.0479794
-0.238786 -0.191434 -0.0497998
-0.241334 -0.194772 -0.0505636
-0.246951 -0.190812 -0.0488446
-0.258628 -0.163881 -0.0409464
-0.250036 -0.170399 -0.04326
-0.254676 -0.174223 -0.0442676
-0.261289 -0.16808 -0.0418118
-0.259346 -0.143732 -0.0340822
-0.249376 -0.14795 -0.0355077
-0.245655 -0.150663 -0.0363886
-0.244372 -0.151833 -0.0368586
-0.244847 -0.152934 -0.0374076
-0.248406 -0.15515 -0.0381481
-0.259174 -0.154346 -0.0377913
-0.264167 -0.147954 -0.0351606
-0.259294 -0.155602 -0.0352619
-0.248558 -0.156742 -0.0349477
-0.245001 -0.154546 -0.0341555
-0.244526 -0.15345 -0.0336065
-0.245809 -0.152282 -0.0331365
-0.249527 -0.149521 -0.0323072
-0.259465 -0.144935 -0.0315528
-0.264237 -0.148696 -0.0336636
-0.254793 -0.175443 -0.0417898
-0.250183 -0.171926 -0.0401628
-0.258746 -0.165107 -0.0384686
-0.261357 -0.168794 -0.0403664
-0.241451 -0.195982 -0.0480858
-0.238933 -0.192947 -0.0467026
-0.246966 -0.187465 -0.0455016
-0.24702 -0.191518 -0.0473992
-0.235436 -0.20217 -0.0499298
-0.238098 -0.20037 -0.0494377
-0.238536 -0.201217 -0.0502489
-0.22686 -0.205017 -0.0505917
-0.229686 -0.204458 -0.0504915
-0.228227 -0.205404 -0.051283
-0.221235 -0.204018 -0.0501349
-0.222861 -0.204714 -0.0503936
-0.220751 -0.204933 -0.0509426
-0.219331 -0.20022 -0.0489061
-0.219507 -0.201903 -0.0494333
-0.21758 -0.200967 -0.0496286
-0.222662 -0.189332 -0.0455293
-0.226369 -0.193149 -0.0464525
-0.220785 -0.196161 -0.0476207
-0.219023 -0.192719 -0.0471014
-0.222528 -0.174968 -0.0408318
-0.229826 -0.176569 -0.0412421
-0.222696 -0.18175 -0.0431469
-0.218573 -0.178887 -0.0426904
-0.216404 -0.16733 -0.0379612
-0.225941 -0.166492 -0.037513
-0.220219 -0.170876 -0.0391689
-0.21414 -0.17024 -0.0393828
-0.211989 -0.161513 -0.036252
-0.220111 -0.160506 -0.0358163
-0.213534 -0.163522 -0.0369979
-0.208896 -0.163051 -0.0373723
-0.212096 -0.159883 -0.034955
-0.219197 -0.158946 -0.0346332
-0.211399 -0.160855 -0.0355416
-0.207779 -0.161011 -0.035907
-0.216169 -0.156829 -0.0338997
-0.222278 -0.156396 -0.0336739
-0.214108 -0.15824 -0.0343746
-0.211535 -0.157891 -0.0347203
-0.223565 -0.150755 -0.0319077
-0.22811 -0.152158 -0.0323076
-0.218881 -0.155047 -0.033305
-0.217222 -0.153702 -0.0333093
-0.230314 -0.139069 -0.0278471
-0.23499 -0.140512 -0.0283176
-0.228391 -0.144769 -0.0298698
-0.226359 -0.142358 -0.0294452
-0.233145 -0.127092 -0.0237284
-0.237764 -0.129748 -0.0245949
-0.232471 -0.133059 -0.0257739
-0.230517 -0.130214 -0.0252387
-0.233739 -0.117314 -0.0191309
-0.230276 -0.121086 -0.0213176
-0.224727 -0.118784 -0.020622
-0.222277 -0.116274 -0.0181468
-0.226618 -0.114923 -0.0166841
-0.215848 -0.113702 -0.0158507
-0.212799 -0.112744 -0.0162281
-0.211176 -0.111677 -0.0144417
-0.214573 -0.111956 -0.0136992
-0.25801 -0.10783 -0.0170047
-0.260326 -0.108098 -0.0189003
-0.259534 -0.112609 -0.0211768
-0.256152 -0.116997 -0.0217796
-0.249152 -0.11439 -0.0192358
-0.251868 -0.109734 -0.0165077
-0.258333 -0.135587 -0.0283183
-0.250787 -0.13457 -0.0271454
-0.251339 -0.129535 -0.0253987
-0.257381 -0.125631 -0.0248726
-0.26148 -0.129678 -0.0270751
-0.101286 -0.0730677 -0.0523875
-0.127708 -0.0631408 -0.0556043
-0.103281 -0.0559622 -0.056813
-0.0803804 -0.0653175 -0.0544009
-0.103647 -0.0399605 -0.0568735
-0.128275 -0.0308165 -0.0556729
-0.103847 -0.0233645 -0.0527837
-0.0827411 -0.0323896 -0.054788
-0.103963 -0.00644081 -0.0447903
-0.129348 0.00133146 -0.0401849
-0.104451 0.00656998 -0.0345933
-0.0828565 0.000167699 -0.0395412
-0.104585 0.0153165 -0.0230417
-0.130663 0.0181347 -0.0185797
-0.104893 0.0193006 -0.0148912
-0.0829893 0.0177038 -0.0182596
-0.103573 -0.113598 -0.00949774
-0.127991 -0.112646 -0.0120358
-0.103556 -0.113099 -0.0139207
-0.0826584 -0.113796 -0.0118469
-0.103218 -0.112066 -0.0171963
-0.12765 -0.109776 -0.0202304
-0.101238 -0.108047 -0.0244636
-0.080323 -0.110814 -0.0202012
-0.100936 -0.100967 -0.0352469
-0.127367 -0.0948707 -0.0403092
-0.100952 -0.0896121 -0.0444714
-0.0781504 -0.0966702 -0.0396645
-0.104731 0.0197602 -0.0103261
-0.130259 0.0219928 -0.00910954
-0.111838 0.0250457 -0.00742861
-0.0946848 0.0213259 -0.00610409
-0.0821626 0.01938 -0.00813048
-0.187584 0.0224137 -0.00919014
-0.20801 0.0204783 -0.0107779
-0.223622 0.0204233 -0.00954865
-0.21672 0.0223812 -0.00663537
-0.201618 0.0258908 -0.00751875
-0.0962635 0.202048 -0.00301172
-0.0920092 0.205326 -0.00251569
-0.0918177 0.20205 -0.00303986
-0.113935 0.183054 -0.00301163
-0.119022 0.17624 -0.00303264
-0.118342 0.178886 -0.00251302
-0.0994236 0.150807 -0.00415229
-0.105237 0.152185 -0.00435043
-0.0966285 0.159664 -0.00383792
-0.0953521 0.154094 -0.00340185
-0.107202 0.0355025 -0.00721949
-0.120677 0.0417005 -0.00793071
-0.104634 0.0480156 -0.00705481
-0.0976694 0.0411644 -0.00588286
-0.0901235 0.189904 -0.00323059
-0.0884681 0.182914 -0.00273125
-0.092202 0.175277 -0.00345461
-0.0965385 0.180088 -0.00368032
-0.10242 0.10865 -0.00368548
-0.107529 0.099851 -0.00541631
-0.11512 0.108745 -0.00569557
-0.10475 0.118936 -0.00433596
-0.107688 0.0633892 -0.00664949
-0.120081 0.0716498 -0.00715557
-0.107853 0.0809198 -0.00617455
-0.102287 0.0715223 -0.00526912
-0.123461 0.166598 -0.00319402
-0.119711 0.163953 -0.00365143
-0.128619 0.154994 -0.00341143
-0.128384 0.160855 -0.00268839
-0.13549 0.141921 -0.00377614
-0.13076 0.13964 -0.00430294
-0.139318 0.134407 -0.00394888
-0.141105 0.136967 -0.00319591
-0.147196 0.101119 -0.00582737
-0.161153 0.0907764 -0.00560524
-0.161647 0.0986987 -0.00434401
-0.1527 0.107874 -0.00496641
-0.170917 0.0743021 -0.00638971
-0.161859 0.0678084 -0.00731357
-0.178629 0.059672 -0.00685377
-0.181528 0.0662248 -0.00549656
-0.194166 0.0364075 -0.0072339
-0.199209 0.0416953 -0.00591672
-0.187508 0.047177 -0.00711246
-0.174683 0.0417031 -0.00794212
-0.0257951 -0.110863 -0.00879266
-0.0475911 -0.113111 -0.011408
-0.0257783 -0.110392 -0.0128523
-0.00280974 -0.106539 -0.0105963
-0.0254401 -0.109414 -0.0158642
-0.0452562 -0.110182 -0.0194987
-0.0234591 -0.105722 -0.0223323
-0.00246818 -0.10403 -0.01754
-0.0235073 -0.071206 -0.0485469
-0.0453135 -0.0650677 -0.0524349
-0.0255021 -0.0550664 -0.0525094
-0.00252538 -0.0600066 -0.0489935
-0.0258345 -0.0393365 -0.0525567
-0.0476407 -0.0324116 -0.0528088
-0.0258345 -0.0234315 -0.0488009
-0.00285784 -0.0298953 -0.0489716
-0.0258345 -0.00671592 -0.0413632
-0.0476407 -6.2381e-005 -0.0381177
-0.0258345 0.00590937 -0.0319989
-0.00285784 0.00046811 -0.03533
-0.0258345 0.0147136 -0.0212437
-0.0476407 0.0175314 -0.0176327
-0.0258345 0.0187061 -0.0137589
-0.00285784 0.016864 -0.0162526
-0.0258345 0.0187393 -0.00946118
-0.0476407 0.0188 -0.00783569
-0.0258345 0.0182356 -0.00570595
-0.00285784 0.0179715 -0.00725212
0.0575044 0.0160803 -0.00758501
0.0382813 0.016506 -0.00642121
0.0575044 0.0157318 -0.00452595
0.0760072 0.0154559 -0.00574293
0.0575397 -0.0894239 -0.00697014
0.0383264 -0.0946345 -0.00932446
0.0575552 -0.0889962 -0.0102774
0.0760506 -0.084599 -0.00838057
0.0575605 -0.0880981 -0.0126053
0.038335 -0.0922057 -0.015584
0.0575495 -0.0851976 -0.0174395
0.0760593 -0.0824652 -0.013838
0.0575044 -0.055171 -0.0391503
0.0382813 -0.052017 -0.04336
0.0575044 -0.0422777 -0.0420256
0.0760072 -0.0460521 -0.0388945
0.0575044 -0.029754 -0.0420058
0.0382813 -0.0251119 -0.0432712
0.0575044 -0.0167074 -0.0389435
0.0760072 -0.0219909 -0.0388055
0.0575044 -0.00397806 -0.0331201
0.0382813 0.00126528 -0.0312436
0.0575044 0.00622794 -0.025485
0.0760072 0.00158004 -0.0279996
0.0575044 0.0127039 -0.0170802
0.0382813 0.0153328 -0.0145166
0.0575044 0.0159814 -0.0109776
0.0760072 0.0143186 -0.0129113
0.130202 -0.0260181 -0.034535
0.111602 -0.0208729 -0.0353986
0.130202 -0.0155955 -0.0320539
0.149586 -0.0211549 -0.0316238
0.130202 -0.00502252 -0.027188
0.111602 0.000541641 -0.0255503
0.130202 0.00347598 -0.0210018
0.149586 -0.00200218 -0.022808
0.130202 0.00986373 -0.0139687
0.111602 0.0131921 -0.0118336
0.130202 0.0129242 -0.00902413
0.149586 0.00970759 -0.0104764
0.148248 0.0188271 -0.00425909
0.151829 0.0129203 -0.0049762
0.13068 0.0138108 -0.00620465
0.111594 0.0154262 -0.00521113
0.124936 0.0191022 -0.00362677
0.139641 0.0243712 -0.00389936
0.125263 -0.0789675 -0.0056289
0.111665 -0.0779272 -0.00760222
0.13072 -0.0740765 -0.00845096
0.151689 -0.0718479 -0.00732932
0.147947 -0.0770351 -0.00660638
0.140135 -0.0816758 -0.00605579
0.130256 -0.073061 -0.0103451
0.111654 -0.0754177 -0.0126695
0.130246 -0.0708497 -0.014189
0.149638 -0.0689688 -0.0111912
0.130202 -0.0465198 -0.0322665
0.111602 -0.0426769 -0.0354887
0.130202 -0.0362847 -0.0345558
0.149586 -0.0402792 -0.0317175
0.210977 -0.0599066 -0.0077292
0.19019 -0.0624648 -0.00973155
0.209441 -0.0584918 -0.0108697
0.230382 -0.056255 -0.00848473
0.209399 -0.0419814 -0.0239549
0.190138 -0.0387155 -0.0271569
0.210923 -0.0344134 -0.0256842
0.230332 -0.0377234 -0.0230065
0.211177 -0.0271646 -0.0256726
0.190392 -0.0226091 -0.0270723
0.211177 -0.0197357 -0.0238082
0.232111 -0.024429 -0.022985
0.211177 -0.0121539 -0.0202286
0.190392 -0.00644762 -0.0195428
0.211177 -0.00592316 -0.0155804
0.232111 -0.0113592 -0.0165754
0.210737 -0.00118672 -0.0102658
0.189952 0.00361086 -0.00892985
0.208092 0.00165388 -0.00567563
0.229025 -0.0027043 -0.00658967
0.210879 0.0041508 -0.00168829
0.206368 0.00279179 -0.00359619
0.18902 0.00683037 -0.00415697
0.196893 0.00881161 -0.00278428
0.190038 -0.0651913 -0.00631961
0.211116 -0.0605821 -0.00630309
0.232388 -0.0573887 -0.00494197
0.216275 -0.0616316 -0.00401894
0.197993 -0.0665927 -0.00495059
0.2906 -0.0530105 -0.0030321
0.274433 -0.0514296 -0.00411501
0.297111 -0.0480984 -0.00431681
0.321947 -0.0485737 -0.00354845
0.311957 -0.0559907 -0.00334724
0.296519 -0.0471592 -0.00532343
0.272927 -0.0499334 -0.00719907
0.29502 -0.0463599 -0.00767956
0.319226 -0.0438235 -0.00541023
0.294758 -0.0446616 -0.0110451
0.271227 -0.0458944 -0.0140808
0.294817 -0.0417972 -0.0138999
0.319099 -0.0408957 -0.0109121
0.295095 -0.0376516 -0.0163384
0.272921 -0.0363529 -0.0191048
0.2967 -0.0330752 -0.0175955
0.319579 -0.0342135 -0.0150464
0.29698 -0.0290622 -0.0175955
0.274726 -0.0262941 -0.0190952
0.297053 -0.0248333 -0.016331
0.320065 -0.0274229 -0.0150484
0.297077 -0.0206796 -0.0138504
0.27475 -0.0166523 -0.0137847
0.297146 -0.0171146 -0.0106974
0.320277 -0.0205647 -0.0108455
0.323197 -0.0121198 -0.00494563
0.297122 -0.0137799 -0.0069295
0.271338 -0.00934374 -0.00528659
0.286745 -0.00758901 -0.0024203
0.311058 -0.00502812 -0.0037036
0.365497 -0.0234388 -0.00763906
0.379093 -0.0243056 -0.00580002
0.378944 -0.0253969 -0.00692543
0.392209 -0.0190252 -0.0026759
0.381471 -0.0221514 -0.00388489
0.368277 -0.0161462 -0.00382986
0.386074 -0.0113687 -0.00275864
0.395466 -0.0186239 -0.00158463
0.395468 -0.0186268 -0.00192564
0.397944 -0.0124136 -0.00135589
0.364806 -0.0428456 -0.00265972
0.378635 -0.0363836 -0.0027146
0.387162 -0.0387664 -0.00206681
0.379039 -0.0467967 -0.00204191
0.377061 -0.0353472 -0.00328353
0.36353 -0.0378238 -0.00398274
0.377134 -0.035112 -0.00405043
0.377395 -0.0344439 -0.00584081
0.363908 -0.0360868 -0.00766501
0.377544 -0.0335584 -0.00692924
0.377924 -0.0317451 -0.00826287
0.364466 -0.0320372 -0.0104914
0.378098 -0.0304818 -0.00871613
0.378463 -0.0286642 -0.00871733
0.365011 -0.0277942 -0.0104943
0.378622 -0.027374 -0.008266
0.488559 0.123395 -0.00243465
0.49126 0.129384 -0.00232136
0.496488 0.129272 -0.00176711
0.462439 0.123895 -0.00339305
0.471765 0.129589 -0.002161
0.476998 0.129475 -0.00322381
0.497804 0.129227 -0.000764593
0.493157 0.123241 -0.00112159
0.497804 0.129227 -0.0011056
0.393735 0.00619902 -0.00260925
0.384373 0.0165249 -0.003148
0.403503 0.025021 -0.00260925
0.406877 0.0149329 -0.00216266
0.413991 0.0443436 -0.00260925
0.409502 0.0549279 -0.003148
0.429242 0.0637448 -0.00260925
0.428077 0.0535268 -0.00216266
0.468308 0.103598 -0.00260925
0.46233 0.0931238 -0.00216266
0.446914 0.0834167 -0.00260925
0.449031 0.0938711 -0.003148
0.463943 0.0930497 -0.00150115
0.473861 0.103393 -0.00119672
0.463946 0.0930484 -0.000894913
0.454547 0.0829109 -0.00119672
0.412378 0.0959149 -0.002161
0.431801 0.10534 -0.00351114
0.425698 0.0951589 -0.00405044
0.403485 0.0861551 -0.00351114
-0.144254 0.123985 -0.00429901
-0.145342 0.128869 -0.00336049
-0.140273 0.132396 -0.00400312
-0.134045 0.131532 -0.00456878
-0.107777 0.142947 -0.00449249
-0.099858 0.148786 -0.00408275
-0.0965531 0.148479 -0.00285961
-0.0973311 0.143579 -0.00201077
-0.101772 0.137691 -0.0036763
0.358064 0.059053 -0.002161
0.376284 0.0679185 -0.00351114
0.376642 0.0576511 -0.00405044
0.354994 0.0489607 -0.00351114
0.43758 0.0631421 -0.00119672
0.430399 0.0533535 -0.000894913
0.424153 0.0436025 -0.00119672
0.430395 0.0533558 -0.00150115
0.344302 0.019091 -0.00405044
0.323949 0.0109811 -0.00351114
0.321799 0.0206832 -0.002161
0.337296 0.029481 -0.00351114
0.405442 0.00533121 -0.00119672
0.409671 0.0147267 -0.00150115
0.414141 0.0242447 -0.00119672
0.409672 0.0147269 -0.000894913
0.40074 -0.155905 -0.0027285
0.394762 -0.149424 -0.00321461
0.403965 -0.154754 -0.00299676
0.415075 -0.149863 -0.00155542
0.411857 -0.150988 -0.00212532
0.410569 -0.143552 -0.00190746
0.398851 -0.122931 -0.00193727
0.386799 -0.11359 -0.00245127
0.38811 -0.102398 -0.00193727
0.396643 -0.111763 -0.00143811
0.382642 -0.0831658 -0.00193727
0.370448 -0.0753203 -0.00245127
0.378588 -0.0645191 -0.00193727
0.386219 -0.0729295 -0.00143811
0.354956 -0.107684 -0.00327794
0.369379 -0.11638 -0.0033227
0.372635 -0.128062 -0.00327794
0.359506 -0.118229 -0.00284581
0.327597 -0.0722543 -0.00327794
0.34368 -0.0795947 -0.0033227
0.34014 -0.089935 -0.00327794
0.327874 -0.0820081 -0.00284581
-0.0221456 -0.0980888 -0.0395404
-0.0304882 -0.094463 -0.0407162
-0.0221923 -0.0869845 -0.0422873
-0.00302512 -0.0903781 -0.0401334
-0.0148683 -0.0982403 -0.0406491
-0.0462823 -0.0972174 -0.0386062
-0.035558 -0.0961865 -0.0397484
-0.0355532 -0.0994647 -0.0371155
-0.00301332 -0.0979527 -0.0342254
-0.0221721 -0.100591 -0.0316288
-0.0304789 -0.100652 -0.0357417
-0.0221424 -0.100058 -0.0379368
-0.0148636 -0.101136 -0.038299
0.0578401 -0.0872494 -0.0352746
0.0724942 -0.0809405 -0.032454
0.0787643 -0.0767529 -0.0272235
0.0575417 -0.081449 -0.0249846
0.0355634 -0.0878739 -0.0306612
0.0426953 -0.0916258 -0.0357197
0.0355512 -0.0802533 -0.0365357
0.0575207 -0.0684516 -0.0347838
0.0787523 -0.0698829 -0.0324826
0.0724882 -0.0774755 -0.0351948
0.0578341 -0.0840339 -0.0378215
0.0426889 -0.0880921 -0.0385104
0.148386 -0.065095 -0.021912
0.130303 -0.0677197 -0.0202051
0.113469 -0.0705368 -0.0245415
0.130947 -0.0693124 -0.026324
0.113456 -0.063761 -0.0297722
0.130281 -0.0568413 -0.0285795
0.148372 -0.0591569 -0.0266451
0.130938 -0.0656412 -0.0292903
0.206819 -0.0558529 -0.0188164
0.216299 -0.0541991 -0.0164169
0.207878 -0.0565362 -0.0152063
0.187071 -0.0598812 -0.018863
0.194631 -0.0597611 -0.0209404
0.231889 -0.0505042 -0.01666
0.221347 -0.0525691 -0.0167969
0.221342 -0.0512561 -0.0179594
0.187057 -0.05451 -0.0232354
0.207857 -0.0491032 -0.0213287
0.216289 -0.0509828 -0.0192036
0.206815 -0.0543684 -0.0200912
0.194625 -0.0573054 -0.0230246
0.180285 -0.0645278 -0.0281432
0.177304 -0.0670304 -0.0294567
0.16912 -0.068094 -0.0307406
0.177308 -0.0682168 -0.0284311
0.180291 -0.0664813 -0.0264616
0.169126 -0.0700517 -0.0290627
0.132829 -0.0784183 -0.0354885
0.145292 -0.0751175 -0.0323819
0.132174 -0.0755118 -0.0319168
0.120601 -0.0797528 -0.0355732
0.0247146 -0.113454 -0.0468346
0.0110949 -0.117729 -0.0486912
0.0190392 -0.121337 -0.0518524
0.0299959 -0.117513 -0.0502878
-0.00785097 -0.108456 -0.0434801
-0.0136293 -0.104377 -0.0410945
-0.0150907 -0.106621 -0.0428657
-0.0150928 -0.105405 -0.0438792
-0.0136327 -0.102377 -0.0427557
-0.00785444 -0.106451 -0.0451371
0.0190369 -0.120096 -0.0528396
0.0110911 -0.115611 -0.0503934
0.0247097 -0.110801 -0.0489559
0.0299919 -0.115387 -0.0519809
0.132167 -0.0729095 -0.0340678
0.145287 -0.073045 -0.0341093
0.132826 -0.0772026 -0.036491
0.120596 -0.0776637 -0.0372884
0.0884954 -0.084944 -0.0382132
0.083066 -0.0899063 -0.0419968
0.0934664 -0.0874342 -0.0418198
0.101083 -0.0839158 -0.0387281
0.0564301 -0.103582 -0.0480284
0.0648069 -0.0978759 -0.0450817
0.056914 -0.0987907 -0.0437863
0.0483768 -0.106965 -0.0478165
0.0569088 -0.0961431 -0.0459081
0.0648027 -0.0957621 -0.0467818
0.0564276 -0.102349 -0.0490196
0.0483726 -0.104847 -0.0495135
0.0934638 -0.0862091 -0.0428162
0.083062 -0.0878012 -0.043702
0.0884901 -0.0823131 -0.0403448
0.101078 -0.0818166 -0.0404372
0.18363 0.0194329 -0.00234791
0.171408 0.0230757 -0.00310072
0.172394 0.0300781 -0.0025363
0.181059 0.025518 -0.00167981
0.160323 0.0416391 -0.00270379
0.152757 0.0402329 -0.00294864
0.156677 0.0438196 -0.00229968
0.158434 -0.0967783 -0.00345799
0.154341 -0.0939332 -0.00447998
0.161506 -0.0951062 -0.00407667
0.171374 -0.0861511 -0.00394822
0.170037 -0.0804307 -0.00487379
0.182523 -0.0767716 -0.00416835
0.179948 -0.0820175 -0.00309705
-0.46033 -0.0309438 -0.12885
-0.460256 -0.0321323 -0.128821
-0.463168 -0.0328203 -0.12885
-0.462578 -0.031541 -0.128707
-0.468377 -0.0348456 -0.12885
-0.470444 -0.0361485 -0.128821
-0.472759 -0.035907 -0.12885
-0.471027 -0.0348564 -0.128707
-0.476034 -0.0358075 -0.12885
-0.478032 -0.0358416 -0.128821
-0.479122 -0.0343302 -0.12885
-0.477107 -0.0346227 -0.128707
-0.482044 -0.031598 -0.12885
-0.483981 -0.0302877 -0.128821
-0.483588 -0.0287729 -0.12885
-0.481997 -0.0300607 -0.128707
-0.483588 -0.0261004 -0.12885
-0.483981 -0.0246985 -0.128821
-0.482046 -0.0243332 -0.12885
-0.481998 -0.0255056 -0.128707
-0.479124 -0.0234775 -0.12885
-0.478032 -0.0226393 -0.128821
-0.476036 -0.0231079 -0.12885
-0.47711 -0.0238724 -0.128707
-0.47276 -0.0232601 -0.12885
-0.470444 -0.0232541 -0.128821
-0.468377 -0.024628 -0.12885
-0.471028 -0.0243261 -0.128707
-0.463168 -0.0271132 -0.12885
-0.460256 -0.0281399 -0.128821
-0.46033 -0.0292466 -0.12885
-0.462578 -0.0283683 -0.128707
-0.476614 -0.0259515 -0.127793
-0.476151 -0.0252158 -0.128043
-0.474823 -0.025675 -0.127793
-0.475361 -0.0262846 -0.127643
-0.472979 -0.0257572 -0.127793
-0.471501 -0.0255995 -0.128043
-0.470447 -0.0265744 -0.127793
-0.47207 -0.026431 -0.127643
-0.467553 -0.027969 -0.127793
-0.465366 -0.0285511 -0.128043
-0.465966 -0.0292246 -0.127793
-0.467718 -0.0287298 -0.127643
-0.465967 -0.030144 -0.127793
-0.465366 -0.030946 -0.128043
-0.467557 -0.031249 -0.127793
-0.467723 -0.0304038 -0.127643
-0.470449 -0.032388 -0.127793
-0.471498 -0.0333751 -0.128043
-0.472972 -0.0330347 -0.127793
-0.472074 -0.0323185 -0.127643
-0.474809 -0.0329749 -0.127793
-0.47614 -0.033181 -0.128043
-0.4766 -0.0320697 -0.127793
-0.475335 -0.0321395 -0.127643
-0.47822 -0.0305417 -0.127793
-0.479728 -0.0298233 -0.128043
-0.479074 -0.0289159 -0.127793
-0.477847 -0.0296221 -0.127643
-0.479075 -0.0274572 -0.127793
-0.47973 -0.0264821 -0.128043
-0.478226 -0.0264403 -0.127793
-0.477847 -0.0272629 -0.127643
-0.474166 -0.0313065 -0.127756
-0.47484 -0.0312739 -0.127633
-0.475053 -0.0306687 -0.127756
-0.474534 -0.0308959 -0.12796
-0.475443 -0.0297994 -0.127756
-0.476122 -0.0294153 -0.127633
-0.475714 -0.0289945 -0.127756
-0.475312 -0.0293394 -0.12796
-0.475687 -0.0285486 -0.127756
-0.476095 -0.0280687 -0.127633
-0.475431 -0.0280278 -0.127756
-0.475283 -0.0284097 -0.12796
-0.475123 -0.0275533 -0.127756
-0.474913 -0.0271047 -0.127633
-0.474236 -0.0271743 -0.127756
-0.47462 -0.0275012 -0.12796
-0.473061 -0.0269231 -0.127756
-0.472292 -0.0269177 -0.127633
-0.471864 -0.0274146 -0.127756
-0.472545 -0.0271636 -0.12796
-0.471156 -0.0284886 -0.127756
-0.470125 -0.0288958 -0.127633
-0.470607 -0.0292353 -0.127756
-0.471225 -0.0289465 -0.12796
-0.470612 -0.0294822 -0.127756
-0.470135 -0.0298975 -0.127633
-0.471179 -0.0301493 -0.127756
-0.471239 -0.0296778 -0.12796
-0.471913 -0.0311078 -0.127756
-0.472328 -0.0316318 -0.127633
-0.473079 -0.0315451 -0.127756
-0.472589 -0.0312783 -0.12796
-0.471472 -0.0289813 -0.128533
-0.471723 -0.029169 -0.128717
-0.471898 -0.0288032 -0.128717
-0.471729 -0.0293862 -0.128717
-0.471486 -0.0296057 -0.128533
-0.471916 -0.0297156 -0.128717
-0.472562 -0.0306546 -0.128717
-0.472672 -0.031125 -0.128533
-0.473052 -0.0308804 -0.128717
-0.474058 -0.0306429 -0.128717
-0.474438 -0.0307557 -0.128533
-0.474449 -0.0303079 -0.128717
-0.474785 -0.0294744 -0.128717
-0.47511 -0.0293118 -0.128533
-0.474861 -0.0291186 -0.128717
-0.474835 -0.0287185 -0.128717
-0.47508 -0.0284935 -0.128533
-0.474767 -0.0284829 -0.128717
-0.474515 -0.0280187 -0.128717
-0.474522 -0.0276477 -0.128533
-0.474123 -0.0277829 -0.128717
-0.473028 -0.0275145 -0.128717
-0.472629 -0.0272924 -0.128533
-0.472518 -0.0277557 -0.128717
-0.473028 -0.0275145 0.128717
-0.472518 -0.0277557 0.128717
-0.472629 -0.0272924 0.128533
-0.474515 -0.0280187 0.128717
-0.474123 -0.0277829 0.128717
-0.474522 -0.0276477 0.128533
-0.474835 -0.0287185 0.128717
-0.474767 -0.0284829 0.128717
-0.47508 -0.0284935 0.128533
-0.474785 -0.0294744 0.128717
-0.474861 -0.0291186 0.128717
-0.47511 -0.0293118 0.128533
-0.474058 -0.0306429 0.128717
-0.474449 -0.0303079 0.128717
-0.474438 -0.0307557 0.128533
-0.472562 -0.0306546 0.128717
-0.473052 -0.0308804 0.128717
-0.472672 -0.031125 0.128533
-0.471729 -0.0293862 0.128717
-0.471916 -0.0297156 0.128717
-0.471486 -0.0296057 0.128533
-0.471898 -0.0288032 0.128717
-0.471723 -0.029169 0.128717
-0.471472 -0.0289813 0.128533
-0.471913 -0.0311078 0.127756
-0.472589 -0.0312783 0.12796
-0.473079 -0.0315451 0.127756
-0.472328 -0.0316318 0.127633
-0.470612 -0.0294822 0.127756
-0.471239 -0.0296778 0.12796
-0.471179 -0.0301493 0.127756
-0.470135 -0.0298975 0.127633
-0.471156 -0.0284886 0.127756
-0.471225 -0.0289465 0.12796
-0.470607 -0.0292353 0.127756
-0.470125 -0.0288958 0.127633
-0.473061 -0.0269231 0.127756
-0.472545 -0.0271636 0.12796
-0.471864 -0.0274146 0.127756
-0.472292 -0.0269177 0.127633
-0.475123 -0.0275533 0.127756
-0.47462 -0.0275012 0.12796
-0.474236 -0.0271743 0.127756
-0.474913 -0.0271047 0.127633
-0.475687 -0.0285486 0.127756
-0.475283 -0.0284097 0.12796
-0.475431 -0.0280278 0.127756
-0.476095 -0.0280687 0.127633
-0.475443 -0.0297994 0.127756
-0.475312 -0.0293394 0.12796
-0.475714 -0.0289945 0.127756
-0.476122 -0.0294153 0.127633
-0.474166 -0.0313065 0.127756
-0.474534 -0.0308959 0.12796
-0.475053 -0.0306687 0.127756
-0.47484 -0.0312739 0.127633
-0.479075 -0.0274572 0.127793
-0.477847 -0.0272629 0.127643
-0.478226 -0.0264403 0.127793
-0.47973 -0.0264821 0.128043
-0.47822 -0.0305417 0.127793
-0.477847 -0.0296221 0.127643
-0.479074 -0.0289159 0.127793
-0.479728 -0.0298233 0.128043
-0.474809 -0.0329749 0.127793
-0.475335 -0.0321395 0.127643
-0.4766 -0.0320697 0.127793
-0.47614 -0.033181 0.128043
-0.470449 -0.032388 0.127793
-0.472074 -0.0323185 0.127643
-0.472972 -0.0330347 0.127793
-0.471498 -0.0333751 0.128043
-0.465967 -0.030144 0.127793
-0.467723 -0.0304038 0.127643
-0.467557 -0.031249 0.127793
-0.465366 -0.030946 0.128043
-0.467553 -0.027969 0.127793
-0.467718 -0.0287298 0.127643
-0.465966 -0.0292246 0.127793
-0.465366 -0.0285511 0.128043
-0.472979 -0.0257572 0.127793
-0.47207 -0.026431 0.127643
-0.470447 -0.0265744 0.127793
-0.471501 -0.0255995 0.128043
-0.476614 -0.0259515 0.127793
-0.475361 -0.0262846 0.127643
-0.474823 -0.025675 0.127793
-0.476151 -0.0252158 0.128043
-0.463168 -0.0271132 0.12885
-0.462578 -0.0283683 0.128707
-0.46033 -0.0292466 0.12885
-0.460256 -0.0281399 0.128821
-0.47276 -0.0232601 0.12885
-0.471028 -0.0243261 0.128707
-0.468377 -0.024628 0.12885
-0.470444 -0.0232541 0.128821
-0.479124 -0.0234775 0.12885
-0.47711 -0.0238724 0.128707
-0.476036 -0.0231079 0.12885
-0.478032 -0.0226393 0.128821
-0.483588 -0.0261004 0.12885
-0.481998 -0.0255056 0.128707
-0.482046 -0.0243332 0.12885
-0.483981 -0.0246985 0.128821
-0.482044 -0.031598 0.12885
-0.481997 -0.0300607 0.128707
-0.483588 -0.0287729 0.12885
-0.483981 -0.0302877 0.128821
-0.476034 -0.0358075 0.12885
-0.477107 -0.0346227 0.128707
-0.479122 -0.0343302 0.12885
-0.478032 -0.0358416 0.128821
-0.468377 -0.0348456 0.12885
-0.471027 -0.0348564 0.128707
-0.472759 -0.035907 0.12885
-0.470444 -0.0361485 0.128821
-0.46033 -0.0309438 0.12885
