0.008734 -0.120295 0.051429 
0.105811 -0.083881 0.039637 
0.165515 -0.070392 0.031785 
0.163169 -0.072137 0.031167 
0.186992 -0.064686 0.025871 
0.182851 -0.065099 0.028131 
0.165460 -0.069431 0.027952 
-0.013272 -0.102739 0.039928 
0.026702 -0.093914 0.035590 
-0.020436 -0.100838 0.038893 
-0.003531 -0.096134 0.040621 
0.153877 0.040182 0.003093 
0.134458 0.025232 0.002258 
0.150178 0.040282 0.002487 
0.189452 0.017783 0.001389 
0.203219 0.008979 0.000000 
0.189452 0.017783 -0.001389 
0.151771 -0.094473 0.002712 
0.152120 -0.094014 0.003774 
0.135259 -0.082758 0.003399 
0.204763 -0.066267 0.002547 
0.191457 -0.072972 0.003461 
-0.477944 -0.029985 0.127610 
-0.472854 -0.026940 0.127742 
-0.472996 -0.031461 0.127877 
-0.475062 -0.027552 0.127758 
-0.475062 -0.027552 -0.127758 
-0.472996 -0.031461 -0.127877 
-0.472854 -0.026940 -0.127742 
-0.477944 -0.029985 -0.127610 
0.187828 -0.076818 -0.002244 
0.191457 -0.072972 -0.003461 
0.204541 -0.066233 -0.003385 
0.156860 -0.091421 -0.004974 
0.151767 -0.094479 -0.002692 
0.135261 -0.082734 -0.003465 
0.152120 -0.094014 -0.003774 
0.149935 0.040778 -0.002127 
0.134459 0.025241 -0.002252 
0.034746 -0.109045 -0.049161 
-0.003531 -0.096134 -0.040621 
-0.020436 -0.100838 -0.038893 
-0.013272 -0.102739 -0.039928 
0.026702 -0.093914 -0.035590 
0.099073 -0.080792 -0.035311 
0.086467 -0.076838 -0.030074 
0.165460 -0.069431 -0.027952 
0.182851 -0.065099 -0.028131 
0.186992 -0.064686 -0.025871 
0.165515 -0.070392 -0.031785 
0.163169 -0.072137 -0.031167 
0.028132 -0.119857 -0.053028 
0.039193 -0.112759 -0.051897 
-0.004711 -0.112336 -0.047679 
0.008734 -0.120295 -0.051429 
0.211622 -0.053312 -0.018052 
0.301411 -0.057674 -0.002042 
0.313580 -0.064945 -0.002835 
0.370196 -0.044257 -0.002450 
0.327217 -0.056202 -0.003340 
0.348874 -0.106739 -0.002872 
0.389344 -0.082128 -0.000954 
0.394290 -0.102229 -0.001060 
0.402663 -0.121956 -0.001110 
0.391521 -0.150073 -0.002356 
0.377572 -0.136526 -0.002882 
0.420599 0.042797 -0.002172 
0.444342 0.074290 -0.002169 
-0.106663 0.146966 -0.004463 
0.492820 0.122848 -0.000301 
0.451263 0.113367 -0.004048 
0.492831 0.122876 -0.001648 
0.396072 -0.009083 -0.002168 
0.328555 -0.005954 -0.004192 
0.363427 -0.029923 -0.011115 
0.364119 -0.033659 -0.009862 
0.363630 -0.036888 -0.006677 
0.358451 -0.038984 -0.003124 
0.408039 -0.159778 -0.001713 
0.415921 -0.155980 -0.001365 
0.364564 -0.019828 -0.004682 
0.268286 -0.013528 -0.011962 
0.247562 -0.007465 -0.009130 
0.215055 -0.042873 -0.022883 
0.272714 -0.052145 -0.003101 
0.233833 -0.057457 -0.003685 
0.161506 -0.067965 -0.008648 
0.164499 -0.096534 -0.002216 
0.164728 -0.095805 -0.003175 
0.168772 0.038060 -0.002083 
0.163320 0.043357 -0.001493 
0.155159 0.010094 -0.008328 
0.079111 -0.039696 -0.039549 
0.079350 -0.063632 -0.032696 
0.081401 -0.051016 -0.036794 
0.076191 -0.078704 -0.019763 
0.080137 -0.076113 -0.023417 
0.076088 -0.084148 -0.010736 
0.110051 -0.078784 -0.005726 
0.110038 0.015946 -0.003733 
0.112027 0.014884 -0.006553 
0.087339 0.005888 -0.023389 
0.107439 0.011499 -0.014902 
0.107622 -0.004079 -0.029001 
-0.000384 0.018120 -0.013095 
-0.000933 0.006156 -0.030390 
-0.001192 -0.082774 -0.040959 
-0.000032 -0.067143 -0.046601 
-0.003115 -0.099556 -0.025331 
-0.000525 -0.097037 -0.029814 
-0.002627 -0.105991 -0.013816 
-0.002814 -0.107150 -0.002841 
-0.001625 0.017307 -0.002422 
-0.047596 -0.113560 -0.006086 
-0.080470 0.019285 -0.006075 
-0.045889 0.019033 -0.014216 
-0.079305 0.006236 -0.034126 
-0.078540 -0.024388 -0.052298 
-0.066032 -0.056922 -0.055575 
-0.074604 -0.041123 -0.056139 
-0.037690 -0.089532 -0.042923 
-0.042629 -0.092882 -0.041860 
-0.050835 -0.074473 -0.050139 
-0.040451 -0.102613 -0.032256 
-0.042569 -0.101507 -0.034915 
-0.047490 -0.112593 -0.014924 
-0.098928 0.062604 -0.003806 
-0.097618 0.048051 -0.005785 
-0.103161 0.096118 -0.004513 
-0.117803 0.090427 -0.006494 
-0.111185 0.128609 -0.004893 
-0.089826 0.174042 -0.002844 
-0.119090 0.178035 -0.002531 
-0.096075 0.197361 -0.003415 
-0.209266 0.026364 -0.006061 
-0.212635 0.025674 -0.004305 
-0.129546 0.025756 -0.008197 
-0.183756 0.026520 -0.008176 
-0.096751 0.034897 -0.004105 
-0.100265 0.024474 -0.004139 
-0.102706 0.029582 -0.005946 
-0.096131 0.204315 -0.001739 
-0.138390 -0.087623 -0.045162 
-0.134842 -0.071258 -0.053071 
-0.174732 -0.098193 -0.035154 
-0.191130 0.020411 -0.010810 
-0.133607 -0.022252 -0.053152 
-0.127748 -0.055156 -0.057272 
-0.135304 -0.038685 -0.057300 
-0.215143 -0.108016 -0.008609 
-0.206567 -0.109110 -0.009084 
-0.228614 -0.105715 -0.005805 
-0.239162 -0.089727 -0.036489 
-0.219029 -0.113600 -0.014923 
-0.233769 -0.108090 -0.011074 
-0.261214 -0.107650 -0.020523 
-0.211158 -0.107994 -0.019475 
-0.231777 -0.202461 -0.049487 
-0.229007 -0.185236 -0.044036 
-0.254021 -0.151355 -0.033340 
-0.264123 -0.141991 -0.031356 
-0.264425 -0.155481 -0.037755 
-0.257102 -0.177021 -0.042983 
-0.256541 -0.177124 -0.044653 
-0.241911 -0.198425 -0.049477 
-0.241690 -0.197856 -0.050944 
-0.228587 -0.205475 -0.051298 
-0.222937 -0.205567 -0.051242 
-0.219003 -0.203247 -0.051999 
-0.217335 -0.200294 -0.051069 
-0.208795 -0.159900 -0.035390 
-0.230069 -0.134011 -0.026558 
-0.227815 -0.122060 -0.022245 
-0.229844 -0.125453 -0.025238 
-0.203671 -0.109508 -0.016600 
-0.259071 -0.116086 -0.022348 
-0.224907 0.009362 -0.034831 
-0.224900 0.016407 -0.023807 
-0.229656 -0.033528 -0.057343 
-0.220782 -0.081453 -0.045288 
-0.243831 -0.062758 -0.053254 
-0.375831 -0.072088 -0.020635 
-0.485631 -0.032479 -0.126633 
-0.477366 -0.038428 -0.126518 
-0.460209 -0.034626 -0.127315 
-0.466238 -0.037051 -0.126544 
-0.455334 -0.031640 -0.126826 
-0.485662 -0.022460 -0.126540 
-0.487735 -0.028584 -0.126583 
-0.487732 -0.024929 -0.126593 
-0.472702 -0.020933 -0.126721 
-0.481719 -0.036350 -0.119679 
-0.472696 -0.038580 -0.126724 
-0.487277 -0.028647 -0.105375 
-0.487278 -0.024889 -0.105377 
-0.487340 -0.028692 -0.086210 
-0.487366 -0.024892 -0.085693 
-0.481980 -0.036107 -0.080828 
-0.457095 -0.029188 -0.083303 
-0.457129 -0.031632 -0.083510 
-0.466658 -0.022949 -0.081744 
-0.479022 -0.020807 -0.087701 
-0.476450 -0.020302 -0.081329 
-0.485203 -0.022277 -0.084705 
-0.490177 -0.019165 -0.048447 
-0.467623 -0.019670 -0.067393 
-0.472182 -0.012870 -0.046293 
0.387500 -0.026174 -0.005090 
0.390779 -0.032942 -0.002370 
0.385648 -0.033002 -0.003316 
0.388065 -0.032052 -0.004232 
0.388405 -0.030911 -0.005738 
0.388802 -0.029231 -0.006376 
0.389169 -0.027475 -0.005737 
-0.340426 -0.058301 -0.031561 
-0.398167 -0.067176 -0.011504 
-0.398105 -0.065875 -0.008182 
-0.343092 0.011092 -0.012455 
-0.274879 0.018197 -0.012508 
-0.324607 -0.083541 -0.012422 
-0.386024 -0.071777 -0.010885 
-0.287882 -0.091305 -0.012646 
-0.274024 -0.095243 -0.012249 
-0.275423 -0.083758 -0.034224 
-0.271214 -0.091899 -0.023764 
-0.351879 -0.044928 -0.056146 
-0.273663 0.014679 -0.022903 
-0.328410 -0.017336 -0.052160 
-0.359172 0.006865 -0.021612 
-0.378281 -0.027695 -0.055389 
-0.417878 -0.010182 -0.040787 
-0.432966 -0.031491 -0.054903 
-0.432711 -0.025243 -0.054308 
-0.472960 -0.027210 -0.128688 
-0.491993 -0.014897 -0.018423 
-0.468979 -0.039082 -0.012412 
-0.347125 -0.066467 -0.039394 
-0.346077 -0.064561 -0.040395 
-0.349027 -0.028889 -0.056300 
-0.354469 -0.071020 -0.031774 
-0.346525 -0.077056 -0.021324 
-0.418711 -0.026110 -0.052235 
-0.419566 -0.033007 -0.053031 
-0.453706 -0.027375 -0.070862 
-0.450425 -0.030362 -0.065797 
-0.496156 -0.025396 -0.035797 
-0.421148 -0.048068 -0.015061 
-0.343688 -0.063634 -0.013556 
-0.339291 -0.061871 -0.033006 
-0.359484 -0.063263 -0.030468 
-0.378475 -0.063946 -0.018172 
-0.387876 -0.066971 -0.021189 
-0.370994 -0.065212 -0.031131 
-0.431455 -0.037375 -0.050747 
-0.441824 -0.040618 -0.042610 
-0.469551 -0.037773 -0.073568 
-0.298923 -0.004954 -0.044666 
-0.290834 -0.057453 -0.052803 
-0.277243 -0.072670 -0.044965 
-0.226361 0.020404 -0.007444 
0.069350 -0.096925 -0.045874 
0.072545 -0.093926 -0.046342 
0.105811 -0.083881 -0.039637 
0.066359 -0.085221 -0.035485 
0.066873 -0.090470 -0.043889 
0.078782 -0.085301 -0.041759 
0.159776 -0.072990 -0.006588 
0.156860 -0.091421 0.004974 
0.178232 0.013631 0.003584 
0.034746 -0.109045 0.049161 
0.071629 -0.087711 0.042753 
0.066359 -0.085221 0.035485 
0.099073 -0.080792 0.035311 
0.086467 -0.076838 0.030074 
0.028132 -0.119857 0.053028 
0.039192 -0.112759 0.051897 
0.069350 -0.096925 0.045874 
0.072546 -0.093926 0.046342 
-0.089619 0.200779 -0.002506 
-0.089686 0.202310 -0.001774 
-0.087551 0.190152 -0.001848 
-0.230295 0.020108 0.015581 
-0.334989 -0.056758 -0.046197 
-0.325273 -0.055405 -0.050922 
-0.309790 -0.061516 -0.048268 
-0.335552 -0.060096 -0.033868 
-0.354764 -0.049922 -0.052175 
-0.357532 -0.063860 -0.035610 
-0.356958 -0.064766 -0.037217 
-0.397957 -0.049024 -0.039830 
-0.400641 -0.045783 -0.048053 
-0.429730 -0.042615 -0.043948 
-0.489585 -0.030177 -0.014083 
-0.489757 -0.027872 -0.067509 
-0.489782 -0.024173 -0.067403 
-0.499236 -0.021350 -0.010392 
-0.494979 -0.018099 -0.024277 
-0.487026 -0.012172 -0.021181 
-0.480210 -0.010309 -0.027772 
-0.479295 -0.013255 -0.043113 
-0.459863 -0.039345 -0.036910 
-0.463938 -0.037870 -0.044349 
-0.471237 -0.037832 -0.040390 
-0.450613 -0.032494 -0.062429 
-0.443506 -0.030278 -0.059834 
-0.442591 -0.035991 -0.053664 
-0.452475 -0.034372 -0.057013 
-0.448237 -0.024270 -0.062877 
-0.456184 -0.023008 -0.064884 
-0.454638 -0.030884 -0.073257 
-0.462659 -0.036091 -0.064615 
-0.448122 -0.006628 -0.029891 
-0.450123 -0.003245 -0.018532 
-0.452567 -0.002025 -0.006843 
-0.394302 -0.069152 -0.011631 
-0.384968 -0.069165 -0.020511 
-0.394156 -0.065781 -0.016330 
-0.399090 -0.040919 -0.053586 
-0.400732 -0.034624 -0.055250 
-0.393600 -0.018305 -0.049931 
-0.425897 -0.025879 -0.052782 
-0.430814 -0.019450 -0.049920 
-0.422839 -0.038514 -0.050336 
-0.403515 -0.002889 -0.032236 
-0.411125 0.003443 -0.007375 
-0.415276 0.000693 -0.020596 
-0.425549 -0.004334 -0.031316 
-0.431283 -0.010464 -0.040878 
-0.313989 0.003641 -0.034682 
-0.308293 0.011590 -0.022070 
-0.360384 0.001231 -0.033826 
-0.365523 -0.007179 -0.043271 
-0.310272 -0.083417 -0.021725 
-0.314151 -0.075777 -0.033866 
-0.304180 -0.068593 -0.043936 
-0.370834 -0.074941 -0.012699 
-0.313864 -0.042147 -0.056892 
-0.320955 -0.029300 -0.056745 
-0.299372 -0.017307 -0.052810 
-0.357964 -0.037035 -0.057660 
-0.256039 -0.017973 -0.053166 
-0.255704 -0.046834 -0.057312 
-0.255574 -0.088752 -0.033855 
-0.246182 -0.077713 -0.045135 
-0.249926 0.016256 -0.023129 
-0.244086 0.019933 -0.014971 
-0.266768 -0.003892 -0.045190 
-0.264622 0.007609 -0.034679 
-0.477908 -0.037631 -0.068725 
-0.472159 -0.017970 -0.065489 
-0.472608 -0.020717 -0.081335 
-0.458105 -0.029290 -0.100556 
-0.458105 -0.031650 -0.100557 
-0.456518 -0.029295 -0.118620 
-0.456518 -0.031646 -0.118624 
-0.465353 -0.023258 -0.126566 
-0.455392 -0.029289 -0.124073 
-0.455392 -0.031651 -0.124072 
-0.455427 -0.029276 -0.127184 
-0.476316 -0.037843 -0.128357 
-0.230295 0.020108 -0.015581 
-0.205022 -0.097945 -0.032986 
-0.213573 -0.094592 -0.035735 
-0.191521 -0.084782 -0.045108 
-0.188273 -0.068119 -0.053183 
-0.211543 -0.018661 -0.053239 
-0.215079 -0.002476 -0.045263 
-0.197518 0.009083 -0.035047 
-0.261211 -0.098719 -0.021219 
-0.275550 -0.092475 -0.019880 
-0.264908 -0.098863 -0.019163 
-0.263708 -0.102036 -0.018563 
-0.268077 -0.097222 -0.009409 
-0.257283 -0.102476 -0.012171 
-0.204464 -0.110121 -0.014228 
-0.193576 -0.109995 -0.014133 
-0.206256 -0.107964 -0.018802 
-0.240797 -0.102404 -0.023686 
-0.238193 -0.096516 -0.027972 
-0.221734 -0.106824 -0.022509 
-0.216528 -0.101253 -0.026138 
-0.261147 -0.127658 -0.027987 
-0.254834 -0.115554 -0.024518 
-0.259132 -0.114057 -0.023562 
-0.260414 -0.108098 -0.021679 
-0.221024 -0.112080 -0.022004 
-0.226326 -0.119393 -0.022979 
-0.236861 -0.117926 -0.024431 
-0.230328 -0.132134 -0.027607 
-0.236193 -0.144619 -0.033674 
-0.225600 -0.143046 -0.031335 
-0.225763 -0.152441 -0.035956 
-0.216048 -0.154147 -0.035149 
-0.209386 -0.158552 -0.036585 
-0.219191 -0.157437 -0.037776 
-0.219794 -0.158567 -0.038807 
-0.207903 -0.161311 -0.038430 
-0.214922 -0.170663 -0.041159 
-0.230047 -0.176988 -0.045023 
-0.218594 -0.177706 -0.044004 
-0.219055 -0.191747 -0.048447 
-0.221910 -0.204702 -0.052566 
-0.262573 -0.164964 -0.040828 
-0.239181 -0.153632 -0.033252 
-0.262636 -0.165717 -0.039374 
-0.237445 -0.201941 -0.050452 
-0.219581 -0.204363 -0.050738 
-0.219367 -0.201054 -0.049116 
-0.219126 -0.192427 -0.047031 
-0.224464 -0.174454 -0.040551 
-0.218610 -0.177798 -0.042363 
-0.213821 -0.169803 -0.039197 
-0.219873 -0.159910 -0.035608 
-0.208589 -0.162611 -0.037277 
-0.207541 -0.161364 -0.036149 
-0.220071 -0.158434 -0.034353 
-0.215926 -0.155064 -0.033764 
-0.234607 -0.132070 -0.025307 
-0.225624 -0.143801 -0.029978 
-0.230478 -0.128388 -0.024586 
-0.222348 -0.116971 -0.019603 
-0.260515 -0.109196 -0.020094 
-0.248185 -0.112562 -0.017972 
-0.245643 -0.131850 -0.025723 
-0.085567 -0.073954 -0.051866 
-0.084908 -0.007107 -0.044607 
-0.113490 0.015531 -0.022954 
-0.094917 -0.101111 -0.035403 
-0.084427 -0.090413 -0.044036 
-0.130259 0.021993 -0.009110 
-0.094685 0.021326 -0.006104 
-0.221474 0.020339 -0.011184 
-0.216720 0.022381 -0.006635 
-0.096505 0.203156 -0.002692 
-0.092069 0.205155 -0.002682 
-0.119308 0.044102 -0.007920 
-0.098316 0.037599 -0.005931 
-0.088069 0.187780 -0.002668 
-0.101514 0.117040 -0.002990 
-0.102098 0.068017 -0.005339 
-0.128797 0.160135 -0.002650 
-0.133409 0.132870 -0.004518 
-0.145938 0.127820 -0.003370 
-0.165402 0.091967 -0.004543 
-0.158839 0.074150 -0.007075 
-0.185270 0.060543 -0.005627 
-0.200078 0.040659 -0.005922 
-0.005121 -0.053086 -0.050640 
-0.004619 -0.037685 -0.050575 
-0.007031 -0.022547 -0.047211 
-0.003697 -0.006101 -0.039678 
-0.040880 0.014921 -0.021719 
0.038415 -0.094356 -0.011456 
0.031812 -0.090526 -0.021801 
0.046171 -0.057317 -0.040419 
0.045938 -0.043865 -0.043472 
0.058825 -0.029288 -0.041689 
0.053231 -0.016771 -0.039329 
0.047866 -0.004135 -0.034004 
0.053981 0.016040 -0.011080 
0.135022 -0.025763 -0.034083 
0.131171 -0.015352 -0.032014 
0.145355 -0.005761 -0.025825 
0.140326 0.012768 -0.006189 
0.124936 0.019102 -0.003627 
0.141206 0.024202 -0.004041 
0.125263 -0.078967 -0.005629 
0.111315 -0.077363 -0.008893 
0.145783 -0.080721 -0.006304 
0.134633 -0.036006 -0.034141 
0.211515 -0.034539 -0.025501 
0.215046 -0.020036 -0.023400 
0.217093 0.001323 -0.001891 
0.188595 0.007530 -0.003937 
0.232785 -0.057044 -0.005684 
0.195073 -0.066793 -0.005379 
0.274169 -0.050902 -0.004786 
0.321362 -0.045278 -0.003745 
0.299076 -0.046975 -0.004784 
0.292550 -0.024799 -0.016744 
0.274588 -0.011302 -0.007581 
0.268097 -0.007909 -0.003140 
0.286745 -0.007589 -0.002420 
0.389956 -0.023593 -0.003337 
0.387117 -0.034665 -0.002582 
0.471765 0.129589 -0.002161 
-0.096769 0.149357 -0.003563 
-0.095858 0.149086 -0.001792 
0.351896 0.053800 -0.002184 
0.372014 0.055985 -0.004054 
0.317890 0.015502 -0.002172 
0.401287 -0.155828 -0.002949 
0.388153 -0.105517 -0.002027 
0.386154 -0.075787 -0.001433 
-0.020817 -0.099032 -0.039781 
-0.003025 -0.090378 -0.040133 
-0.003013 -0.097953 -0.034225 
-0.022172 -0.100591 -0.031629 
-0.023594 -0.099659 -0.037714 
-0.014864 -0.101136 -0.038299 
0.042729 -0.085205 -0.025932 
0.048946 -0.092557 -0.037242 
0.079677 -0.074552 -0.033781 
0.039934 -0.086574 -0.037707 
0.140560 -0.066078 -0.019565 
0.134656 -0.068607 -0.025890 
0.116689 -0.067707 -0.030586 
0.210886 -0.054398 -0.017826 
0.225506 -0.047260 -0.019615 
0.210922 -0.053054 -0.018981 
0.176808 -0.068362 -0.028257 
0.030130 -0.116518 -0.049441 
-0.018029 -0.103235 -0.042582 
0.014090 -0.120146 -0.052412 
0.129481 -0.077922 -0.036957 
0.088219 -0.089152 -0.042720 
0.051248 -0.106476 -0.048892 
0.100488 -0.083987 -0.041608 
0.176400 -0.085037 -0.003050 
-0.472143 -0.035508 -0.128807 
-0.483780 -0.024639 -0.128865 
-0.474066 -0.027195 -0.127877 
-0.472753 -0.031813 -0.127620 
-0.472753 -0.031813 0.127620 
-0.474066 -0.027195 0.127877 
-0.483780 -0.024639 0.128865 
-0.472143 -0.035508 0.128807 
0.176400 -0.085037 0.003050 
0.100488 -0.083987 0.041608 
0.051248 -0.106476 0.048892 
0.088219 -0.089152 0.042720 
0.129481 -0.077922 0.036957 
0.014090 -0.120146 0.052412 
0.030130 -0.116518 0.049441 
0.176808 -0.068362 0.028257 
0.210922 -0.053054 0.018981 
0.225506 -0.047260 0.019615 
0.210886 -0.054398 0.017826 
0.116689 -0.067707 0.030586 
0.134656 -0.068607 0.025890 
0.140560 -0.066078 0.019565 
0.039934 -0.086574 0.037707 
0.079677 -0.074552 0.033781 
0.048946 -0.092557 0.037242 
0.042729 -0.085205 0.025932 
-0.003013 -0.097953 0.034225 
-0.014864 -0.101136 0.038299 
-0.023594 -0.099659 0.037714 
-0.022172 -0.100591 0.031629 
-0.024668 -0.097506 0.039334 
-0.020817 -0.099032 0.039781 
-0.003025 -0.090378 0.040133 
0.386154 -0.075787 0.001433 
0.388153 -0.105517 0.002027 
0.401287 -0.155828 0.002949 
0.317890 0.015502 0.002172 
0.437611 0.063193 0.001808 
0.424153 0.043601 -0.001806 
0.437583 0.063136 -0.001796 
0.351896 0.053800 0.002184 
0.372014 0.055985 0.004054 
0.454482 0.082779 0.001691 
0.471765 0.129589 0.002161 
0.387117 -0.034665 0.002582 
0.389956 -0.023593 0.003337 
0.274588 -0.011302 0.007581 
0.286745 -0.007589 0.002420 
0.268097 -0.007909 0.003140 
0.292550 -0.024799 0.016744 
0.299077 -0.046975 0.004784 
0.321362 -0.045278 0.003745 
0.274169 -0.050902 0.004786 
0.195073 -0.066793 0.005379 
0.232785 -0.057044 0.005684 
0.217093 0.001323 0.001891 
0.188595 0.007530 0.003937 
0.215046 -0.020036 0.023400 
0.211515 -0.034539 0.025501 
0.134632 -0.036006 0.034141 
0.125263 -0.078967 0.005629 
0.145783 -0.080721 0.006304 
0.111315 -0.077363 0.008893 
0.140326 0.012768 0.006189 
0.141206 0.024202 0.004041 
0.124936 0.019102 0.003627 
0.145355 -0.005761 0.025825 
0.135022 -0.025763 0.034083 
0.131171 -0.015352 0.032014 
0.053981 0.016040 0.011080 
0.047866 -0.004135 0.034004 
0.058825 -0.029288 0.041689 
0.053231 -0.016771 0.039329 
0.046171 -0.057317 0.040419 
0.045938 -0.043865 0.043472 
0.038349 -0.093540 0.013401 
0.038267 -0.094682 0.009559 
0.076090 -0.084931 -0.005211 
0.038348 -0.095154 -0.000959 
0.071923 0.014975 -0.000000 
-0.040880 0.014921 0.021719 
-0.003697 -0.006101 0.039678 
-0.004619 -0.037685 0.050575 
-0.007031 -0.022547 0.047211 
-0.005121 -0.053086 0.050640 
-0.200078 0.040659 0.005922 
-0.185270 0.060543 0.005627 
-0.158839 0.074150 0.007075 
-0.165402 0.091967 0.004543 
-0.145938 0.127820 0.003370 
-0.133409 0.132870 0.004518 
-0.128797 0.160135 0.002650 
-0.136058 0.148154 -0.002027 
-0.102098 0.068017 0.005339 
-0.101514 0.117040 0.002990 
-0.088069 0.187780 0.002668 
-0.098316 0.037599 0.005931 
-0.119308 0.044101 0.007920 
-0.096769 0.149357 0.003563 
-0.092069 0.205155 0.002682 
-0.216720 0.022381 0.006635 
-0.221474 0.020339 0.011184 
-0.094685 0.021326 0.006104 
-0.130259 0.021993 0.009110 
-0.094917 -0.101111 0.035403 
-0.084427 -0.090413 0.044036 
-0.079951 0.018719 -0.000000 
-0.113490 0.015531 0.022954 
-0.084908 -0.007107 0.044607 
-0.085567 -0.073954 0.051866 
-0.245643 -0.131850 0.025723 
-0.260515 -0.109196 0.020094 
-0.248185 -0.112562 0.017972 
-0.219029 -0.113600 0.014923 
-0.222348 -0.116971 0.019603 
-0.230478 -0.128388 0.024586 
-0.225624 -0.143801 0.029978 
-0.215926 -0.155064 0.033764 
-0.207541 -0.161364 0.036149 
-0.208589 -0.162611 0.037277 
-0.213821 -0.169803 0.039197 
-0.218610 -0.177798 0.042363 
-0.224464 -0.174454 0.040551 
-0.219126 -0.192427 0.047031 
-0.228807 -0.204745 0.050512 
-0.237624 -0.200798 0.049487 
-0.262636 -0.165717 0.039374 
-0.239181 -0.153632 0.033252 
-0.262573 -0.164964 0.040828 
-0.237378 -0.201240 0.051888 
-0.219275 -0.199784 0.051564 
-0.219055 -0.191747 0.048447 
-0.230047 -0.176988 0.045023 
-0.218594 -0.177706 0.044004 
-0.214922 -0.170663 0.041159 
-0.219794 -0.158567 0.038807 
-0.207903 -0.161311 0.038430 
-0.219191 -0.157437 0.037776 
-0.225762 -0.152441 0.035956 
-0.209386 -0.158552 0.036585 
-0.216048 -0.154147 0.035149 
-0.236193 -0.144619 0.033674 
-0.225600 -0.143046 0.031335 
-0.230328 -0.132134 0.027607 
-0.236861 -0.117926 0.024431 
-0.226326 -0.119393 0.022979 
-0.254834 -0.115554 0.024518 
-0.260414 -0.108098 0.021679 
-0.259132 -0.114057 0.023562 
-0.261147 -0.127658 0.027987 
-0.253182 -0.100865 0.007598 
-0.221734 -0.106824 0.022509 
-0.216528 -0.101253 0.026138 
-0.240797 -0.102404 0.023686 
-0.238193 -0.096516 0.027972 
-0.206256 -0.107964 0.018802 
-0.193576 -0.109995 0.014133 
-0.204464 -0.110121 0.014228 
-0.257283 -0.102476 0.012171 
-0.268077 -0.097222 0.009409 
-0.263708 -0.102036 0.018563 
-0.264908 -0.098863 0.019163 
-0.275550 -0.092475 0.019880 
-0.261211 -0.098719 0.021219 
-0.215078 -0.002476 0.045263 
-0.197518 0.009083 0.035047 
-0.211543 -0.018661 0.053239 
-0.188273 -0.068119 0.053183 
-0.213573 -0.094592 0.035735 
-0.205022 -0.097945 0.032986 
-0.191521 -0.084782 0.045108 
-0.204702 -0.109387 -0.002641 
-0.178921 -0.111248 -0.000000 
-0.210767 -0.108558 0.004089 
-0.218651 -0.107164 -0.003789 
-0.226958 0.019870 -0.000000 
-0.476316 -0.037843 0.128357 
-0.455427 -0.029276 0.127184 
-0.455392 -0.031651 0.124072 
-0.455392 -0.029289 0.124073 
-0.465353 -0.023258 0.126566 
-0.456518 -0.031646 0.118624 
-0.456518 -0.029295 0.118620 
-0.458105 -0.031650 0.100557 
-0.458105 -0.029290 0.100556 
-0.472608 -0.020717 0.081335 
-0.472159 -0.017970 0.065489 
-0.477908 -0.037631 0.068725 
-0.266768 -0.003892 0.045190 
-0.264622 0.007609 0.034679 
-0.249926 0.016256 0.023129 
-0.244086 0.019933 0.014971 
-0.255574 -0.088752 0.033855 
-0.246182 -0.077713 0.045135 
-0.255704 -0.046834 0.057312 
-0.256039 -0.017973 0.053166 
-0.258902 -0.099353 -0.005932 
-0.241451 -0.102863 -0.003907 
-0.258791 -0.099352 0.005616 
-0.248851 0.019235 -0.000000 
-0.343046 -0.060273 -0.006431 
-0.379552 -0.053421 0.008037 
-0.394394 -0.069260 -0.006691 
-0.378284 -0.064149 0.007458 
-0.357965 -0.037035 0.057660 
-0.299372 -0.017307 0.052810 
-0.320955 -0.029300 0.056745 
-0.313864 -0.042147 0.056892 
-0.304180 -0.068593 0.043936 
-0.314151 -0.075777 0.033866 
-0.310272 -0.083417 0.021725 
-0.365523 -0.007179 0.043271 
-0.360384 0.001231 0.033826 
-0.308293 0.011590 0.022070 
-0.313989 0.003641 0.034682 
-0.431283 -0.010464 0.040878 
-0.425549 -0.004334 0.031316 
-0.415276 0.000693 0.020596 
-0.411125 0.003443 0.007375 
-0.403515 -0.002889 0.032236 
-0.422839 -0.038514 0.050336 
-0.430814 -0.019450 0.049920 
-0.425897 -0.025879 0.052782 
-0.393600 -0.018305 0.049931 
-0.399090 -0.040919 0.053586 
-0.400732 -0.034624 0.055250 
-0.394156 -0.065781 0.016330 
-0.394302 -0.069152 0.011631 
-0.384968 -0.069165 0.020511 
-0.460184 -0.003127 0.007763 
-0.450123 -0.003245 0.018532 
-0.448122 -0.006628 0.029891 
-0.462659 -0.036091 0.064615 
-0.454638 -0.030884 0.073257 
-0.448237 -0.024270 0.062877 
-0.450613 -0.032494 0.062429 
-0.452475 -0.034372 0.057013 
-0.442591 -0.035991 0.053664 
-0.443506 -0.030278 0.059834 
-0.463938 -0.037870 0.044349 
-0.471237 -0.037832 0.040390 
-0.485978 -0.011470 0.019900 
-0.479295 -0.013255 0.043113 
-0.480210 -0.010309 0.027772 
-0.499248 -0.024738 0.010173 
-0.497139 -0.025014 0.030556 
-0.494979 -0.018099 0.024277 
-0.499236 -0.021350 0.010392 
-0.489782 -0.024173 0.067403 
-0.489757 -0.027872 0.067509 
-0.429730 -0.042615 0.043948 
-0.428965 -0.045598 0.034691 
-0.397957 -0.049024 0.039830 
-0.400641 -0.045783 0.048053 
-0.357532 -0.063860 0.035610 
-0.356958 -0.064766 0.037217 
-0.354764 -0.049922 0.052175 
-0.335552 -0.060096 0.033868 
-0.309790 -0.061516 0.048268 
-0.325273 -0.055405 0.050922 
-0.293609 -0.063646 0.049132 
-0.384275 -0.012978 0.046538 
-0.436712 -0.014296 0.046136 
-0.436727 -0.039201 0.048157 
-0.397423 -0.043533 0.051727 
-0.373940 -0.066622 0.029378 
-0.359010 -0.063355 0.021310 
-0.496525 -0.023529 0.035475 
-0.459787 -0.041088 0.026287 
-0.452481 -0.028796 0.069985 
-0.461240 -0.006580 0.027055 
-0.418466 -0.029694 0.053088 
-0.329485 0.006618 0.028243 
-0.332079 -0.077031 0.026768 
-0.378889 -0.051314 0.038568 
-0.337518 -0.066345 0.041416 
-0.472362 -0.037498 0.021066 
-0.474325 -0.028279 0.128867 
-0.472976 -0.007212 0.020793 
-0.438890 -0.027678 0.057726 
-0.418999 -0.016026 0.046294 
-0.386537 -0.031462 0.056025 
-0.282296 -0.086867 0.027064 
-0.280962 -0.093608 0.008685 
-0.385251 -0.071976 0.010709 
-0.325420 -0.083791 0.007781 
-0.400949 0.005140 0.000000 
-0.398924 -0.067203 0.007604 
-0.456971 -0.002445 -0.000000 
-0.481308 -0.034547 -0.006305 
-0.494733 -0.016173 0.001075 
-0.488350 -0.012165 -0.004576 
-0.500018 -0.022611 -0.000000 
-0.361761 -0.055835 0.017960 
0.391781 -0.028956 0.003751 
-0.476152 -0.016883 0.061093 
-0.475148 -0.037013 0.052458 
-0.483146 -0.021577 0.088994 
-0.474772 -0.020714 0.088100 
-0.462501 -0.025477 0.087787 
-0.456760 -0.030462 0.084393 
-0.475154 -0.038777 0.086379 
-0.487784 -0.026646 0.084459 
-0.218603 -0.074388 0.049318 
-0.255740 -0.039678 0.057828 
-0.230918 0.013244 0.029185 
-0.207864 -0.110384 0.016261 
-0.216982 -0.114281 0.018719 
-0.227341 -0.122712 0.023296 
-0.229149 -0.134374 0.027495 
-0.208024 -0.159377 0.036001 
-0.206176 -0.161401 0.037084 
-0.218284 -0.203617 0.051303 
-0.232509 -0.204172 0.051845 
-0.242570 -0.198089 0.050214 
-0.256851 -0.178648 0.044328 
-0.265719 -0.159538 0.038256 
-0.265090 -0.138965 0.031220 
-0.223642 -0.200956 0.052478 
-0.241676 -0.173942 0.040573 
-0.237855 -0.143368 0.029455 
-0.223762 -0.202630 0.049285 
-0.239141 -0.121509 0.021763 
-0.242044 -0.106807 0.023181 
-0.137655 -0.046550 0.057822 
-0.190590 0.012859 0.029551 
-0.143122 -0.112524 0.007987 
-0.141154 -0.103760 0.029776 
-0.168503 -0.078102 0.049549 
-0.104893 0.195429 0.002116 
-0.100046 0.029170 0.004101 
-0.156188 0.026713 0.008377 
-0.208651 0.030558 0.004193 
-0.088257 0.196869 0.001804 
-0.124390 0.169718 0.001771 
-0.089047 0.173594 0.002010 
-0.154813 0.113349 0.002618 
-0.120985 0.137727 0.004679 
-0.099311 0.125377 0.000000 
-0.144467 0.062148 0.007799 
-0.176054 0.077366 0.003606 
-0.101694 0.093346 0.003236 
-0.095292 0.047849 0.004035 
-0.067407 -0.113560 0.014828 
-0.056090 -0.104401 0.030839 
-0.062775 -0.083151 0.047321 
-0.061062 -0.048863 0.055746 
-0.065279 -0.114258 0.008649 
0.018495 -0.101053 0.007615 
0.018372 -0.093850 0.023722 
0.001679 -0.074550 0.043346 
0.002403 -0.044334 0.050113 
0.006046 -0.012949 0.042246 
0.000878 0.018357 0.010853 
0.106552 -0.009325 0.031818 
0.089922 0.015447 0.008486 
0.095150 0.015120 0.005331 
0.093719 -0.081151 0.002630 
0.093785 -0.080142 0.010873 
0.095436 -0.074813 0.018825 
0.083169 -0.057004 0.034256 
0.150225 -0.065890 0.015981 
0.188413 -0.050172 0.023437 
0.156454 0.002230 0.018250 
0.181957 0.006642 0.005280 
0.169567 0.038583 0.001451 
0.169780 -0.092831 0.002119 
0.253207 -0.053941 0.004283 
0.252739 -0.053688 0.006089 
0.248116 -0.019117 0.019058 
0.239088 -0.003515 0.000000 
0.496909 0.135215 -0.000000 
0.413150 -0.159307 0.001485 
0.342386 -0.036819 0.010914 
0.341402 -0.029990 0.013535 
0.362073 -0.025104 0.009583 
0.350684 -0.006016 0.003828 
0.306103 0.002966 -0.000000 
0.399516 -0.008542 0.001827 
0.484634 0.114252 0.001794 
0.468352 0.122129 0.003950 
0.436902 0.112323 0.000000 
0.373918 0.072787 0.000000 
0.340084 0.045199 0.000000 
0.418855 0.033885 0.001807 
0.380414 -0.140338 0.002022 
0.397672 -0.147136 0.003256 
0.413398 -0.142133 0.001093 
0.391243 -0.091669 0.000955 
0.388234 -0.053813 0.000954 
0.310717 -0.064920 0.002018 
-0.001290 -0.115958 0.048707 
0.107177 -0.083536 0.040454 
0.162597 -0.072092 0.032011 
0.189826 -0.063453 0.025862 
0.181511 -0.062286 0.022263 
0.005005 -0.103026 0.040207 
-0.021336 -0.102272 0.040972 
0.181013 -0.059321 0.024850 
0.150065 0.040920 0.001781 
0.193811 0.015476 0.000000 
0.144304 -0.088712 0.003096 
0.195261 -0.071419 0.002435 
-0.465118 -0.035282 0.128702 
-0.486488 -0.025811 0.128434 
-0.484000 -0.022879 0.128443 
-0.458443 -0.030416 0.128871 
-0.482509 -0.028198 0.128682 
-0.471933 -0.027267 0.127668 
-0.473313 -0.031283 0.128472 
-0.472960 -0.027210 0.128688 
-0.473313 -0.031283 -0.128472 
-0.471933 -0.027267 -0.127668 
-0.482509 -0.028198 -0.128682 
-0.458443 -0.030416 -0.128871 
-0.484000 -0.022879 -0.128443 
-0.486488 -0.025811 -0.128434 
-0.465118 -0.035282 -0.128702 
0.195261 -0.071436 -0.002411 
0.144314 -0.088751 -0.003031 
0.142857 0.033458 -0.002025 
0.181013 -0.059321 -0.024850 
-0.021335 -0.102272 -0.040972 
0.005005 -0.103026 -0.040207 
0.181511 -0.062286 -0.022263 
0.189826 -0.063453 -0.025862 
0.162597 -0.072092 -0.032011 
0.037731 -0.115141 -0.051903 
-0.001290 -0.115958 -0.048707 
0.387827 -0.060118 -0.000916 
0.345078 -0.104486 -0.002018 
0.391246 -0.091668 -0.000954 
0.413373 -0.142057 -0.001089 
0.397672 -0.147136 -0.003256 
0.380404 -0.140346 -0.002007 
0.417554 0.031366 -0.001806 
0.447934 0.075615 -0.001808 
0.468352 0.122129 -0.003950 
0.484613 0.114244 -0.001804 
0.399670 -0.008170 -0.001821 
0.350684 -0.006016 -0.003828 
0.362073 -0.025104 -0.009583 
0.341402 -0.029990 -0.013535 
0.342386 -0.036819 -0.010914 
0.413151 -0.159296 -0.001489 
0.248116 -0.019117 -0.019058 
0.252739 -0.053688 -0.006089 
0.253272 -0.053882 -0.004425 
0.169780 -0.092840 -0.002112 
0.169530 0.038615 -0.001453 
0.181957 0.006642 -0.005280 
0.156454 0.002230 -0.018250 
0.188415 -0.050172 -0.023437 
0.150225 -0.065890 -0.015981 
0.083168 -0.057004 -0.034256 
0.095436 -0.074813 -0.018825 
0.093785 -0.080142 -0.010873 
0.093704 -0.080877 -0.007458 
0.093504 0.014838 -0.001843 
0.089922 0.015447 -0.008486 
0.106552 -0.009325 -0.031818 
0.000878 0.018357 -0.010853 
0.006046 -0.012949 -0.042246 
0.002403 -0.044334 -0.050113 
0.001679 -0.074550 -0.043346 
0.046353 0.015639 -0.001450 
-0.061062 -0.048863 -0.055746 
-0.062775 -0.083151 -0.047321 
-0.056090 -0.104401 -0.030839 
-0.095312 0.048006 -0.004026 
-0.101703 0.093256 -0.003248 
-0.176491 0.076742 -0.003596 
-0.144467 0.062147 -0.007799 
-0.120985 0.137727 -0.004679 
-0.089187 0.172905 -0.001999 
-0.122434 0.173229 -0.001775 
-0.208661 0.030645 -0.004156 
-0.156188 0.026713 -0.008377 
-0.100049 0.029280 -0.004129 
-0.104895 0.195388 -0.002146 
-0.168503 -0.078102 -0.049549 
-0.141154 -0.103760 -0.029776 
-0.143122 -0.112524 -0.007987 
-0.190591 0.012858 -0.029552 
-0.137655 -0.046550 -0.057822 
-0.242044 -0.106807 -0.023181 
-0.239141 -0.121509 -0.021763 
-0.223762 -0.202630 -0.049285 
-0.237855 -0.143368 -0.029455 
-0.241676 -0.173942 -0.040573 
-0.223642 -0.200957 -0.052478 
-0.265090 -0.138965 -0.031220 
-0.265719 -0.159538 -0.038256 
-0.256851 -0.178648 -0.044328 
-0.242570 -0.198089 -0.050214 
-0.232509 -0.204172 -0.051845 
-0.218284 -0.203617 -0.051303 
-0.206176 -0.161401 -0.037084 
-0.208024 -0.159377 -0.036001 
-0.229149 -0.134374 -0.027495 
-0.227341 -0.122712 -0.023296 
-0.216982 -0.114281 -0.018719 
-0.207864 -0.110384 -0.016261 
-0.230918 0.013244 -0.029185 
-0.255740 -0.039678 -0.057828 
-0.218603 -0.074388 -0.049318 
-0.487784 -0.026646 -0.084459 
-0.475154 -0.038777 -0.086379 
-0.456760 -0.030462 -0.084393 
-0.462501 -0.025477 -0.087787 
-0.474772 -0.020714 -0.088100 
-0.483146 -0.021577 -0.088994 
-0.475148 -0.037013 -0.052458 
-0.476153 -0.016883 -0.061094 
0.391762 -0.028956 -0.003758 
-0.358987 -0.055984 -0.021301 
-0.398977 -0.067203 -0.007486 
-0.284208 -0.092854 -0.007737 
-0.282296 -0.086867 -0.027064 
-0.386537 -0.031462 -0.056025 
-0.418999 -0.016026 -0.046294 
-0.438890 -0.027678 -0.057726 
-0.472976 -0.007212 -0.020793 
-0.474325 -0.028279 -0.128867 
-0.474391 -0.036609 -0.021082 
-0.337518 -0.066345 -0.041416 
-0.378889 -0.051314 -0.038568 
-0.332079 -0.077031 -0.026768 
-0.329485 0.006618 -0.028243 
-0.418466 -0.029694 -0.053088 
-0.461240 -0.006580 -0.027055 
-0.452481 -0.028796 -0.069985 
-0.459956 -0.041012 -0.026652 
-0.496525 -0.023529 -0.035475 
-0.359010 -0.063355 -0.021310 
-0.373940 -0.066622 -0.029378 
-0.397423 -0.043533 -0.051727 
-0.436727 -0.039201 -0.048157 
-0.436712 -0.014296 -0.046136 
-0.384275 -0.012978 -0.046538 
-0.293609 -0.063646 -0.049132 
0.071315 -0.095965 -0.046448 
0.107177 -0.083536 -0.040454 
0.037731 -0.115141 0.051903 
0.071315 -0.095965 0.046448 
-0.088257 0.196871 -0.001804 
-0.327180 -0.059410 -0.044003 
-0.359958 -0.050955 -0.049745 
-0.401241 -0.047570 -0.043951 
-0.485829 -0.030646 -0.034579 
-0.488152 -0.029907 -0.069508 
-0.487944 -0.022307 -0.070363 
-0.497250 -0.020149 -0.021387 
-0.496555 -0.026064 -0.029125 
-0.482367 -0.009445 -0.009601 
-0.446330 -0.042413 -0.033306 
-0.465569 -0.038672 -0.037946 
-0.447248 -0.033283 -0.058584 
-0.447234 -0.020221 -0.057659 
-0.457706 -0.033051 -0.074808 
-0.447005 -0.008739 -0.035332 
-0.466117 -0.004440 -0.009866 
-0.465379 -0.010534 -0.037856 
-0.390653 -0.069489 -0.015430 
-0.401974 -0.037747 -0.054557 
-0.399645 -0.022324 -0.051930 
-0.426092 -0.021638 -0.050568 
-0.425714 -0.034051 -0.052884 
-0.403761 -0.005995 -0.037021 
-0.408052 0.003006 -0.014290 
-0.427717 -0.007116 -0.036148 
-0.304028 -0.000461 -0.040266 
-0.361139 0.008268 -0.015455 
-0.363256 -0.002607 -0.038762 
-0.320309 -0.083209 -0.017031 
-0.304334 -0.073045 -0.039491 
-0.364642 -0.075194 -0.017687 
-0.303758 -0.049248 -0.055508 
-0.319052 -0.023127 -0.055111 
-0.370125 -0.023307 -0.053719 
-0.259303 -0.082859 -0.039230 
-0.257365 0.018479 -0.016881 
-0.265696 0.002101 -0.040332 
-0.480460 -0.036720 -0.071245 
-0.480496 -0.020513 -0.078514 
-0.486437 -0.023483 -0.101107 
-0.470020 -0.021987 -0.105289 
-0.459468 -0.027872 -0.101602 
-0.459368 -0.032930 -0.103317 
-0.470016 -0.037778 -0.105114 
-0.469688 -0.038024 -0.126551 
-0.486964 -0.023525 -0.126437 
-0.469700 -0.021667 -0.126482 
-0.458491 -0.027381 -0.119074 
-0.457503 -0.027384 -0.124014 
-0.457387 -0.032958 -0.122068 
-0.486691 -0.029646 -0.128015 
-0.486058 -0.023838 -0.128238 
-0.479813 -0.021433 -0.128041 
-0.471506 -0.021562 -0.128053 
-0.458058 -0.027555 -0.128037 
-0.457103 -0.033028 -0.127329 
-0.470837 -0.037872 -0.128011 
-0.479754 -0.036890 -0.128041 
-0.199363 -0.091789 -0.039635 
-0.240840 -0.055662 -0.055779 
-0.217171 0.004164 -0.040321 
-0.263428 -0.095967 -0.022018 
-0.268149 -0.097131 -0.017444 
-0.263368 -0.099321 -0.011330 
-0.197670 -0.109933 -0.011941 
-0.198412 -0.106893 -0.020246 
-0.239520 -0.099329 -0.025107 
-0.222082 -0.103161 -0.023976 
-0.222122 -0.107861 -0.008934 
-0.254550 -0.127149 -0.028269 
-0.256348 -0.109990 -0.023102 
-0.213887 -0.111709 -0.019215 
-0.227105 -0.116254 -0.022982 
-0.233002 -0.129618 -0.027503 
-0.228335 -0.143152 -0.032152 
-0.218991 -0.153757 -0.035766 
-0.211181 -0.159179 -0.037618 
-0.212046 -0.160389 -0.038907 
-0.219889 -0.169110 -0.041427 
-0.223130 -0.186707 -0.047668 
-0.255950 -0.172253 -0.043667 
-0.253490 -0.150177 -0.036411 
-0.254762 -0.174005 -0.041189 
-0.237624 -0.200798 -0.049487 
-0.223141 -0.184731 -0.044146 
-0.217209 -0.168154 -0.038165 
-0.212110 -0.161576 -0.036364 
-0.211558 -0.160380 -0.035145 
-0.219587 -0.154541 -0.033139 
-0.226976 -0.117746 -0.019242 
-0.256270 -0.111787 -0.019277 
-0.254918 -0.128883 -0.025558 
-0.090980 -0.064787 -0.054871 
-0.108383 -0.112935 -0.014647 
-0.121548 -0.110827 -0.018870 
-0.086227 -0.096506 -0.039838 
-0.104103 0.021217 -0.008227 
-0.208736 0.022035 -0.008631 
-0.099676 0.149670 -0.004174 
-0.103970 0.043657 -0.007142 
-0.089536 0.189165 -0.003235 
-0.106998 0.107030 -0.005081 
-0.107850 0.066277 -0.006582 
-0.128013 0.156336 -0.003364 
-0.141594 0.129769 -0.004070 
-0.159298 0.095008 -0.005430 
-0.171745 0.072475 -0.006472 
-0.189322 0.044595 -0.007157 
-0.024485 -0.107312 -0.019829 
-0.022844 -0.066141 -0.050131 
-0.004612 -0.030131 -0.049284 
-0.003948 0.000513 -0.035444 
-0.040854 0.017551 -0.017446 
0.052283 0.016412 -0.009235 
0.057589 -0.089169 -0.009400 
0.057730 -0.088314 -0.012282 
0.048797 -0.050033 -0.041962 
0.052821 -0.023527 -0.041331 
0.082398 0.001634 -0.027407 
0.055090 0.014294 -0.014742 
0.134213 -0.020509 -0.033246 
0.124368 -0.000143 -0.024708 
0.139095 0.010554 -0.011624 
0.133500 0.017041 -0.004746 
0.134279 -0.076543 -0.007016 
0.127362 -0.073119 -0.011287 
0.142920 -0.040560 -0.032440 
0.196833 -0.061055 -0.010115 
0.210829 -0.038213 -0.024837 
0.200939 -0.025116 -0.026478 
0.197729 0.003176 -0.006989 
0.201449 0.005636 -0.003030 
0.209924 -0.062003 -0.005369 
0.298709 -0.050976 -0.003709 
0.254185 -0.047075 -0.015807 
0.308023 -0.018923 -0.010916 
0.297450 -0.010025 -0.004696 
0.380215 -0.017263 -0.003361 
0.411300 0.045931 -0.002786 
0.444312 0.083468 -0.002780 
0.423933 0.100013 -0.003527 
-0.099791 0.145166 -0.003581 
0.377729 -0.072213 -0.002069 
0.313865 -0.057653 -0.003265 
-0.019551 -0.094213 -0.040578 
-0.019542 -0.100196 -0.035829 
0.057683 -0.083110 -0.030555 
0.057673 -0.077205 -0.035113 
0.139833 -0.066322 -0.022588 
0.116504 -0.063250 -0.029521 
0.203927 -0.056910 -0.017881 
0.203917 -0.053059 -0.021105 
0.145492 -0.075164 -0.032382 
0.021174 -0.118501 -0.049619 
0.018092 -0.116270 -0.051224 
0.123333 -0.076629 -0.036628 
0.087826 -0.087666 -0.040682 
0.053429 -0.103482 -0.046561 
0.055300 -0.100020 -0.048087 
0.096267 -0.082531 -0.040989 
0.174612 -0.083122 -0.003945 
-0.476311 -0.035351 -0.128823 
-0.481109 -0.032037 -0.128804 
-0.470540 -0.024128 -0.128812 
-0.461065 -0.028506 -0.128918 
-0.473672 -0.025992 -0.127608 
-0.478711 -0.026836 -0.127728 
-0.475579 -0.028866 -0.127789 
-0.470418 -0.029393 -0.127710 
-0.470418 -0.029393 0.127710 
-0.475579 -0.028866 0.127789 
-0.478711 -0.026836 0.127728 
-0.473672 -0.025992 0.127608 
-0.461065 -0.028506 0.128918 
-0.470540 -0.024128 0.128812 
-0.481109 -0.032037 0.128804 
-0.476311 -0.035351 0.128823 
0.174612 -0.083122 0.003945 
0.096267 -0.082531 0.040989 
0.055301 -0.100020 0.048087 
0.053429 -0.103482 0.046561 
0.087826 -0.087666 0.040682 
0.123333 -0.076629 0.036628 
0.018093 -0.116270 0.051224 
0.021174 -0.118501 0.049619 
0.145492 -0.075164 0.032382 
0.203917 -0.053059 0.021105 
0.203927 -0.056910 0.017881 
0.116504 -0.063250 0.029521 
0.139833 -0.066322 0.022588 
0.057673 -0.077205 0.035113 
0.057683 -0.083110 0.030555 
-0.019542 -0.100196 0.035829 
-0.019551 -0.094213 0.040578 
0.313865 -0.057653 0.003265 
0.377729 -0.072213 0.002069 
0.409113 0.013600 0.001807 
-0.099791 0.145166 0.003581 
0.423933 0.100013 0.003527 
0.469396 0.098713 -0.000000 
0.444313 0.083468 0.002780 
0.411299 0.045931 0.002786 
0.389539 -0.040713 -0.001389 
0.380215 -0.017263 0.003361 
0.297450 -0.010025 0.004696 
0.308023 -0.018923 0.010916 
0.254187 -0.047075 0.015807 
0.298709 -0.050976 0.003709 
0.209924 -0.062003 0.005369 
0.201449 0.005636 0.003030 
0.197729 0.003176 0.006989 
0.200939 -0.025116 0.026478 
0.210829 -0.038213 0.024837 
0.196833 -0.061055 0.010115 
0.142921 -0.040560 0.032440 
0.127362 -0.073119 0.011287 
0.134279 -0.076543 0.007016 
0.133500 0.017041 0.004746 
0.139095 0.010554 0.011624 
0.124368 -0.000143 0.024708 
0.134213 -0.020509 0.033246 
0.055090 0.014294 0.014742 
0.082398 0.001634 0.027407 
0.052821 -0.023527 0.041331 
0.048797 -0.050033 0.041962 
0.057730 -0.088314 0.012282 
0.057589 -0.089169 0.009400 
0.057609 -0.089752 -0.000000 
0.052283 0.016412 0.009235 
-0.036783 0.017917 -0.001804 
-0.040854 0.017551 0.017446 
-0.003948 0.000513 0.035444 
-0.004612 -0.030131 0.049284 
-0.022844 -0.066141 0.050131 
-0.024485 -0.107312 0.019829 
-0.189322 0.044595 0.007157 
-0.201373 0.042119 -0.000179 
-0.171745 0.072475 0.006472 
-0.159299 0.095008 0.005430 
-0.141594 0.129769 0.004070 
-0.128013 0.156336 0.003364 
-0.107850 0.066277 0.006582 
-0.106998 0.107030 0.005081 
-0.089536 0.189165 0.003235 
-0.103970 0.043657 0.007142 
-0.099676 0.149670 0.004174 
-0.095633 0.149599 0.002670 
-0.208736 0.022035 0.008631 
-0.104103 0.021217 0.008227 
-0.086227 -0.096506 0.039838 
-0.121548 -0.110827 0.018870 
-0.108383 -0.112935 0.014647 
-0.090371 -0.114247 -0.004622 
-0.090980 -0.064787 0.054871 
-0.254918 -0.128883 0.025558 
-0.256270 -0.111787 0.019277 
-0.226976 -0.117746 0.019242 
-0.219587 -0.154541 0.033139 
-0.211558 -0.160380 0.035145 
-0.212110 -0.161576 0.036364 
-0.217209 -0.168154 0.038165 
-0.223141 -0.184731 0.044146 
-0.254762 -0.174005 0.041189 
-0.253490 -0.150177 0.036411 
-0.255950 -0.172253 0.043667 
-0.223130 -0.186707 0.047668 
-0.219889 -0.169110 0.041427 
-0.212046 -0.160389 0.038907 
-0.211181 -0.159178 0.037618 
-0.218991 -0.153757 0.035766 
-0.228335 -0.143152 0.032152 
-0.233002 -0.129618 0.027503 
-0.227105 -0.116254 0.022982 
-0.213887 -0.111709 0.019215 
-0.256348 -0.109990 0.023102 
-0.254550 -0.127149 0.028269 
-0.222122 -0.107861 0.008934 
-0.222082 -0.103161 0.023976 
-0.239520 -0.099329 0.025107 
-0.198412 -0.106893 0.020246 
-0.197670 -0.109933 0.011941 
-0.263368 -0.099321 0.011330 
-0.268149 -0.097131 0.017444 
-0.263428 -0.095967 0.022018 
-0.217171 0.004164 0.040321 
-0.240840 -0.055662 0.055779 
-0.199363 -0.091789 0.039635 
-0.202353 -0.109474 0.000208 
-0.479754 -0.036890 0.128041 
-0.470837 -0.037872 0.128011 
-0.457103 -0.033028 0.127329 
-0.458058 -0.027555 0.128037 
-0.471506 -0.021562 0.128053 
-0.479813 -0.021433 0.128041 
-0.486058 -0.023838 0.128238 
-0.486691 -0.029646 0.128015 
-0.457387 -0.032958 0.122068 
-0.457503 -0.027384 0.124014 
-0.458491 -0.027381 0.119074 
-0.469700 -0.021667 0.126482 
-0.486964 -0.023525 0.126437 
-0.469688 -0.038024 0.126551 
-0.470016 -0.037778 0.105114 
-0.459368 -0.032930 0.103317 
-0.459468 -0.027872 0.101602 
-0.470020 -0.021987 0.105289 
-0.486437 -0.023483 0.101107 
-0.480496 -0.020513 0.078514 
-0.480460 -0.036720 0.071245 
-0.265696 0.002101 0.040332 
-0.257365 0.018479 0.016881 
-0.259303 -0.082859 0.039230 
-0.257736 -0.099458 0.000000 
-0.266791 0.018608 0.000344 
-0.337458 -0.062769 -0.004259 
-0.388731 -0.070880 -0.001925 
-0.390125 -0.064650 0.014456 
-0.370125 -0.023307 0.053719 
-0.319052 -0.023127 0.055111 
-0.303758 -0.049248 0.055508 
-0.364642 -0.075194 0.017687 
-0.304334 -0.073045 0.039491 
-0.320309 -0.083209 0.017031 
-0.363256 -0.002607 0.038762 
-0.361139 0.008268 0.015455 
-0.304028 -0.000461 0.040266 
-0.427717 -0.007116 0.036148 
-0.408052 0.003006 0.014290 
-0.403758 -0.005995 0.037021 
-0.425714 -0.034051 0.052884 
-0.426092 -0.021638 0.050568 
-0.399645 -0.022324 0.051930 
-0.401974 -0.037747 0.054557 
-0.390653 -0.069489 0.015430 
-0.465379 -0.010534 0.037856 
-0.447005 -0.008739 0.035332 
-0.457706 -0.033051 0.074808 
-0.447234 -0.020221 0.057659 
-0.447248 -0.033283 0.058584 
-0.445204 -0.044685 0.014335 
-0.465569 -0.038672 0.037946 
-0.446330 -0.042413 0.033306 
-0.491626 -0.014276 0.012425 
-0.482817 -0.009597 0.009186 
-0.496555 -0.026064 0.029125 
-0.497250 -0.020149 0.021387 
-0.487944 -0.022307 0.070363 
-0.488152 -0.029907 0.069508 
-0.492024 -0.029125 0.012341 
-0.485829 -0.030646 0.034579 
-0.401241 -0.047570 0.043951 
-0.359958 -0.050955 0.049745 
-0.327180 -0.059410 0.044003 
-0.232420 0.020370 0.012817 
0.090132 -0.088429 0.043323 
0.052675 -0.105619 0.049547 
0.074694 -0.080784 0.032829 
0.055920 -0.088838 0.036176 
0.082764 -0.079171 0.037292 
0.054794 -0.086226 0.038689 
0.166665 0.023917 0.003344 
0.165115 -0.081001 0.005240 
0.165115 -0.081001 -0.005240 
0.166665 0.023917 -0.003344 
0.082764 -0.079171 -0.037292 
0.054794 -0.086226 -0.038689 
0.074694 -0.080784 -0.032829 
0.055920 -0.088838 -0.036176 
0.090132 -0.088429 -0.043323 
0.052675 -0.105619 -0.049547 
-0.232420 0.020370 -0.012817 
-0.335980 -0.054697 -0.050264 
-0.344782 -0.054741 -0.048206 
-0.333634 -0.062224 -0.040164 
-0.428571 -0.045935 -0.033252 
-0.410145 -0.048526 -0.030978 
-0.489819 -0.026088 -0.069177 
-0.495103 -0.021045 -0.036623 
-0.498524 -0.023090 -0.022218 
-0.464719 -0.040029 -0.024672 
-0.447292 -0.027405 -0.063385 
-0.454649 -0.025126 -0.068236 
-0.455276 -0.029703 -0.077354 
-0.453967 -0.032232 -0.067595 
-0.446165 -0.004500 -0.024720 
-0.456275 -0.003099 -0.013077 
-0.464173 -0.005489 -0.021036 
-0.381548 -0.064512 -0.022624 
-0.394466 -0.067100 -0.016072 
-0.418577 -0.022516 -0.050623 
-0.428111 -0.028990 -0.053863 
-0.419159 -0.035973 -0.052315 
-0.418145 -0.001273 -0.025696 
-0.333178 0.010920 -0.017609 
-0.365617 0.003805 -0.027902 
-0.305885 -0.081310 -0.027696 
-0.342038 -0.070434 -0.035710 
-0.360987 -0.072498 -0.026794 
-0.331345 -0.034409 -0.057270 
-0.356928 -0.032845 -0.057218 
-0.350085 -0.041762 -0.057201 
-0.429992 -0.044219 -0.039709 
-0.436965 -0.045682 -0.019660 
-0.371372 -0.050617 -0.046390 
-0.315479 -0.065255 -0.045121 
-0.356917 -0.066386 -0.036538 
-0.488191 -0.030150 -0.058783 
-0.495675 -0.026931 -0.023064 
-0.472076 -0.037376 -0.030536 
-0.486453 -0.016631 -0.048169 
-0.496691 -0.018112 -0.012905 
-0.475232 -0.019213 -0.073352 
-0.471895 -0.008506 -0.028647 
-0.448225 -0.015353 -0.049875 
-0.462160 -0.015720 -0.050089 
-0.438526 -0.021075 -0.054592 
-0.433558 -0.034705 -0.053425 
-0.441852 -0.010493 -0.039661 
-0.424738 -0.040967 -0.047728 
-0.382143 -0.072204 -0.015140 
-0.427373 -0.014546 -0.045072 
-0.378824 -0.039114 -0.056342 
-0.291657 -0.011087 -0.049444 
-0.354391 -0.012369 -0.047964 
-0.276458 0.016748 -0.017471 
-0.319124 -0.084994 -0.007930 
-0.315903 -0.055562 -0.052337 
-0.355650 -0.047345 -0.054348 
-0.235664 -0.025532 -0.055767 
-0.371523 -0.075014 -0.008395 
-0.278246 0.018148 -0.008468 
-0.391184 -0.064787 -0.014153 
-0.284682 -0.090169 -0.019082 
-0.251692 0.019809 -0.010671 
-0.260865 -0.068412 -0.049452 
-0.260099 -0.093781 -0.025084 
-0.265499 0.012172 -0.028466 
-0.466650 -0.036727 -0.084132 
-0.485163 -0.020751 -0.071516 
-0.468368 -0.021142 -0.075339 
-0.480728 -0.018452 -0.065666 
-0.467854 -0.014669 -0.051341 
-0.453870 -0.013212 -0.045185 
-0.481621 -0.033318 -0.044220 
-0.458556 -0.037374 -0.045095 
-0.469589 -0.038174 -0.052699 
-0.486787 -0.023458 -0.084080 
-0.469440 -0.022170 -0.088451 
-0.459258 -0.027162 -0.083466 
-0.462981 -0.025466 -0.101010 
-0.459730 -0.033442 -0.089085 
-0.457618 -0.030492 -0.101817 
-0.462789 -0.034920 -0.102557 
-0.478438 -0.038237 -0.084146 
-0.486354 -0.030625 -0.093982 
-0.484497 -0.033588 -0.100515 
-0.487439 -0.026670 -0.101322 
-0.479641 -0.037659 -0.118312 
-0.474973 -0.038722 -0.127119 
-0.483871 -0.034413 -0.126463 
-0.488019 -0.026671 -0.126394 
-0.475724 -0.020635 -0.126636 
-0.463742 -0.024345 -0.120418 
-0.455924 -0.030492 -0.119479 
-0.461248 -0.034808 -0.119415 
-0.454652 -0.030494 -0.126118 
-0.460103 -0.034754 -0.125294 
-0.480897 -0.021107 -0.126634 
-0.486990 -0.030488 -0.126384 
-0.487452 -0.025841 -0.127715 
-0.484147 -0.021873 -0.127223 
-0.475752 -0.021320 -0.128390 
-0.457408 -0.027405 -0.126809 
-0.465146 -0.024029 -0.128292 
-0.455685 -0.030830 -0.128008 
-0.480385 -0.037114 -0.126784 
-0.483882 -0.033336 -0.128260 
-0.371997 -0.069511 -0.027175 
-0.337430 -0.061240 -0.022865 
-0.238408 0.018992 -0.018759 
-0.229243 -0.086319 -0.041171 
-0.191968 -0.101662 -0.029129 
-0.219306 -0.009845 -0.049455 
-0.231984 -0.106287 -0.008293 
-0.249133 -0.102484 -0.008877 
-0.268009 -0.097619 -0.013384 
-0.268360 -0.095114 -0.020690 
-0.230007 -0.101231 -0.025315 
-0.214603 -0.103889 -0.022797 
-0.192435 -0.109543 -0.016030 
-0.258621 -0.102542 -0.021596 
-0.208613 -0.109486 -0.017969 
-0.221430 -0.115480 -0.021326 
-0.231884 -0.122049 -0.024830 
-0.219275 -0.199784 -0.051564 
-0.221934 -0.203289 -0.052738 
-0.237220 -0.198864 -0.051940 
-0.257659 -0.156529 -0.038654 
-0.263383 -0.140549 -0.032770 
-0.239724 -0.126459 -0.027247 
-0.243256 -0.178050 -0.045781 
-0.230760 -0.163679 -0.040431 
-0.238734 -0.154669 -0.037962 
-0.240202 -0.152478 -0.036917 
-0.226447 -0.165680 -0.037190 
-0.234460 -0.115447 -0.017954 
-0.260413 -0.143755 -0.031251 
-0.264043 -0.157244 -0.036388 
-0.266582 -0.150067 -0.035093 
-0.262703 -0.168093 -0.041011 
-0.228807 -0.204745 -0.050512 
-0.238268 -0.201505 -0.051165 
-0.222090 -0.204520 -0.050237 
-0.227094 -0.205569 -0.052138 
-0.221679 -0.205446 -0.051959 
-0.216709 -0.200408 -0.050266 
-0.218071 -0.192922 -0.047976 
-0.217624 -0.180047 -0.043934 
-0.213706 -0.171686 -0.040651 
-0.208022 -0.163536 -0.038378 
-0.214390 -0.155127 -0.034581 
-0.228360 -0.144589 -0.029801 
-0.224587 -0.143591 -0.030660 
-0.231099 -0.122095 -0.021849 
-0.229609 -0.128883 -0.025559 
-0.215738 -0.113647 -0.015711 
