9.675858 1.433372 0.826625 
9.656888 0.997853 1.343007 
-10.520442 1.721546 1.840207 
-10.418901 2.042856 1.560796 
-9.898447 2.445665 0.994022 
-10.295739 2.089345 1.712771 
-9.665977 2.698620 0.981484 
-9.495812 3.045258 0.819443 
-9.481235 2.892877 1.427974 
-9.373963 3.335248 1.082958 
9.379927 3.278144 1.106338 
9.266219 3.568408 0.742184 
9.401432 2.556904 2.327877 
9.476772 3.002336 1.059993 
9.533598 2.575539 1.196074 
-9.313131 3.207243 1.725038 
7.650649 4.526068 2.126555 
7.494098 4.706407 1.818214 
8.129216 4.051674 1.513204 
7.720850 4.346206 1.813758 
8.864404 3.732081 1.315425 
8.791245 3.672072 1.911013 
8.053996 4.064030 1.909683 
-9.272484 3.809060 1.143165 
-9.138888 4.050511 2.044441 
7.529972 4.801443 1.321191 
7.426169 5.052176 1.451506 
7.378888 5.112676 1.711218 
-8.808524 5.115052 2.213428 
-8.896767 5.205600 1.672233 
-8.711572 5.440541 1.944108 
-8.616776 5.667954 1.490195 
-8.465947 5.739861 1.901215 
7.450205 5.480616 1.274808 
7.669095 6.195490 1.114213 
7.386602 5.592097 1.672923 
7.486837 5.846640 1.377829 
-8.157766 6.024094 1.516374 
-7.499768 6.416018 0.800752 
-7.026487 6.740263 0.813943 
7.751596 6.410466 0.867923 
7.832611 6.773525 1.556714 
-6.538502 7.146959 1.476043 
4.631144 7.534069 1.648139 
5.538279 7.418365 1.388906 
5.034376 7.390872 1.766622 
5.817718 7.457070 1.486023 
6.886849 7.726430 1.889258 
6.836445 7.857059 1.405721 
6.169384 7.662812 1.102482 
6.712549 7.803829 1.588112 
7.195601 7.657999 1.983749 
7.439181 7.390278 2.087224 
7.546690 7.663544 1.737879 
7.744836 6.939774 1.873186 
7.724943 7.372553 1.801154 
7.854298 7.171576 1.598282 
7.759371 7.524859 1.376646 
7.872746 7.208480 1.343691 
7.749642 7.245901 0.957612 
7.859330 6.951689 1.135322 
-6.067237 8.083379 1.484659 
-5.816086 8.475513 1.336339 
4.315354 7.955714 1.130233 
4.336159 7.723105 1.798549 
4.202259 7.929610 1.424107 
7.127129 7.854355 1.632257 
7.639161 7.631918 1.196533 
7.427352 7.797901 1.489729 
7.369540 7.818001 1.255578 
-5.478735 8.666899 2.005567 
-5.285530 8.871489 1.546847 
-4.901621 9.020454 1.384085 
-5.081775 8.896987 1.967871 
-4.287437 9.176101 1.296814 
-3.687710 9.304946 0.958292 
-3.288624 9.402082 0.949640 
-3.220224 9.314337 1.717279 
3.045923 9.293777 2.165281 
3.379691 9.194038 1.728249 
3.300704 9.329105 1.374519 
4.064752 8.293686 1.158613 
3.970040 8.249558 1.571868 
3.709449 8.939919 1.263464 
3.667436 8.818315 1.810004 
-2.711523 9.620486 1.298650 
-2.144080 10.302965 1.516014 
-2.512193 9.800691 1.365113 
-2.804282 9.487998 1.571277 
-2.446978 9.695749 1.819288 
-0.474561 10.187709 0.866494 
-0.151105 10.028103 0.906294 
-0.375010 10.145584 1.224156 
-0.317192 10.035967 1.633758 
0.577755 9.787824 0.887396 
0.158828 9.920540 0.739357 
1.076317 9.662519 1.191479 
3.161577 9.452239 0.895376 
2.484441 9.587235 0.728629 
2.850460 9.474383 1.379615 
-2.047290 10.256614 1.839227 
-1.863353 10.549825 1.633023 
-1.776927 10.637948 1.361632 
-1.157181 10.635785 1.134808 
-0.923469 10.567739 1.429392 
-1.487686 10.721358 1.502331 
-1.201751 10.689002 1.460242 
0.925032 -10.543118 1.581411 
1.293788 -10.650291 1.715381 
1.649525 -10.673948 1.575549 
-0.826632 -9.675856 1.433380 
-0.191870 -9.734070 2.055015 
0.094072 -9.874881 1.814355 
1.070925 -10.473104 1.916184 
0.425243 -9.977936 2.014714 
0.623004 -9.959023 2.240228 
1.497455 -9.816131 2.473641 
1.359084 -10.446610 2.032708 
1.591599 -10.588790 1.820075 
1.538421 -10.303137 2.136318 
1.803431 -10.288029 2.046433 
2.165544 -9.713434 2.196609 
1.912803 -9.753341 2.350470 
-3.055271 -9.281713 2.211988 
-3.676471 -8.748195 2.638068 
-3.336211 -8.948233 2.884089 
1.742569 -9.570094 2.614192 
2.681006 -9.384507 2.096546 
2.222722 -9.479995 2.402523 
2.994352 -9.193380 2.452749 
3.226799 -9.290000 1.872089 
4.840158 -8.921469 2.222759 
4.202610 -9.085014 2.177790 
4.411164 -9.121821 1.756149 
-3.752916 -8.624188 2.162178 
-3.985374 -8.190757 1.929162 
5.336194 -8.593472 2.405721 
5.792089 -8.395883 1.935532 
5.418007 -8.683002 2.088139 
5.608749 -8.659569 1.615626 
5.924208 -8.112636 2.192330 
-7.398076 -7.497333 2.043247 
-7.712319 -7.141601 1.917615 
-7.520749 -7.242698 2.099187 
-6.782323 -7.281780 2.453694 
-6.283110 -7.515069 2.023129 
-6.564729 -7.416986 2.339947 
-6.180419 -7.446529 2.241207 
-6.011104 -7.385568 2.717884 
-6.206525 -7.362027 2.569275 
-5.882071 -7.406865 2.352951 
-4.989904 -7.476023 2.227943 
-5.286927 -7.390494 2.108790 
-5.706556 -7.447950 2.569701 
-4.220057 -7.910685 2.136544 
-4.795305 -7.614484 2.401852 
-4.553701 -7.606084 2.063125 
5.683178 -8.261265 2.472659 
6.337306 -7.352630 2.257372 
-7.460831 -6.579104 2.275094 
-6.961121 -7.068506 2.549185 
-7.301998 -6.878677 2.403317 
-7.160876 -6.657497 2.652398 
6.598179 -7.086279 1.320984 
6.810341 -6.758924 1.796627 
7.097505 -6.477846 2.400094 
7.278818 -6.404358 2.032512 
-7.445776 -5.916030 1.673637 
-7.499074 -6.234600 2.013211 
-7.420899 -6.031298 2.310036 
8.117749 -6.033147 1.654040 
8.068524 -5.975451 2.103001 
8.673032 -5.520250 1.862308 
8.300300 -5.736862 2.327323 
8.857238 -5.232552 1.853510 
-7.363982 -5.470398 1.879581 
-7.415366 -5.735539 2.440895 
8.716434 -5.230236 2.304225 
-7.955961 -4.285622 2.372200 
-7.473825 -4.906367 2.166840 
-7.646273 -4.687230 2.374914 
9.104162 -4.343535 1.962502 
8.943795 -4.683034 2.298138 
-8.597457 -3.775296 2.283633 
-9.169434 -3.280636 2.177013 
-8.887148 -3.628206 1.824850 
-8.796850 -3.619140 2.460287 
-8.975137 -3.397884 2.593441 
9.098577 -3.832615 2.338828 
9.004420 -3.407832 2.828352 
-9.209910 -2.867794 2.741314 
9.463077 -2.509007 2.131404 
9.663854 -2.321700 2.065872 
9.363039 -2.779662 2.066361 
9.226215 -2.728684 2.559189 
-9.389030 -2.178937 2.730676 
9.661955 -2.104221 2.288442 
10.250093 -1.823295 2.068724 
10.339504 -1.471054 2.123188 
9.943267 -0.993211 2.399707 
10.026724 -0.475142 1.988093 
9.975562 -0.704940 2.272164 
10.426994 -1.245171 2.034828 
-9.885352 0.200032 1.952237 
-9.831228 -0.083120 1.658714 
9.797702 -0.156776 2.199525 
9.791136 0.112486 1.825901 
9.603522 0.672609 2.429940 
9.672418 0.328295 2.300936 
-9.890437 0.378543 2.176064 
-9.964009 0.610990 2.228161 
-10.463036 1.166985 1.975852 
-10.449704 1.400870 2.032826 
-10.250261 1.912649 2.005995 
-10.297369 1.597790 2.126636 
-9.836184 2.444791 1.564764 
-9.728333 2.323628 1.989494 
-9.606130 2.654129 1.551104 
-9.621677 2.204619 2.233317 
-9.434557 2.628152 2.022791 
-9.252832 3.058743 2.180727 
9.314922 3.177839 1.804055 
9.047400 3.562618 1.535869 
9.257642 2.920923 2.517722 
8.956530 3.390325 2.686089 
-9.106224 3.088560 2.709837 
-9.018407 4.176128 2.410415 
7.918644 4.276218 2.282530 
8.595924 3.776088 2.259939 
8.696263 3.718473 2.543521 
8.427138 4.008081 2.681603 
-8.989117 4.661255 2.149619 
-8.772661 4.912899 2.497568 
-8.878761 4.440605 2.595390 
7.602705 4.842236 2.411318 
7.464326 4.980553 2.200637 
7.367441 5.407391 2.003996 
-8.181576 5.902263 2.114548 
-8.547416 5.471962 2.324856 
-8.249332 5.632752 2.561951 
7.490196 6.151440 1.920340 
7.402520 5.892200 2.294710 
-7.345429 6.341444 2.246261 
-7.033001 6.500600 2.600311 
-6.955475 6.646705 1.742942 
-6.745807 6.853201 1.616794 
7.389087 6.140107 2.442405 
7.385827 6.613918 2.382954 
7.486977 6.414822 2.193058 
-6.342850 7.348820 2.234247 
4.681791 7.565157 2.149091 
4.981399 7.487576 2.268850 
5.543260 7.365622 1.889522 
6.048298 7.421763 2.242947 
5.279855 7.388785 2.094833 
5.581033 7.484942 2.627730 
5.782151 7.423019 2.472409 
6.447045 7.332187 2.519149 
6.127211 7.371027 2.590036 
6.627924 7.431120 2.318233 
6.204294 7.525742 1.850230 
6.334549 7.473983 2.179607 
7.594884 7.201220 2.046844 
6.815173 7.252717 2.476609 
6.978863 7.070803 2.531868 
7.184889 6.796543 2.544843 
-5.986836 8.142552 1.837798 
-5.729822 8.478198 1.905915 
-5.613536 8.354281 2.445587 
-6.138105 7.521688 2.651410 
-5.860497 8.128180 2.340346 
4.489547 7.766206 2.356811 
4.206527 7.974808 2.246758 
4.109896 7.990353 1.903072 
4.713841 7.744718 2.546041 
-5.272501 8.596785 2.491850 
-4.323875 9.115322 1.917229 
-4.736964 8.909163 2.343033 
-4.243628 9.006300 2.425416 
-2.646487 9.454995 1.951503 
-3.187900 9.178184 2.410799 
-2.809629 9.295712 2.218596 
2.701950 9.217475 2.881629 
3.512892 8.947134 2.196962 
3.416648 8.932649 2.728608 
3.707247 8.696465 2.236277 
3.683987 8.739803 2.610086 
-2.362771 9.485227 2.249476 
-2.174966 9.710136 2.185344 
-1.829187 10.367756 1.961883 
-1.726432 9.646486 2.526146 
-1.997346 9.642486 2.387100 
-0.768388 10.081533 2.180244 
-0.995113 9.945036 2.398631 
0.109018 9.816514 1.663790 
-0.488772 10.045299 1.969089 
-0.492175 9.875204 2.311266 
-0.095033 9.800924 2.112974 
-1.597388 10.522066 1.907474 
-1.446810 10.363708 2.108184 
-0.942152 10.503209 1.742974 
-1.322360 10.592763 1.834718 
-1.112216 10.431001 1.983655 
-1.196097 -9.533594 2.575546 
-0.187675 -9.655725 2.501344 
0.319789 -9.765463 2.438876 
0.861613 -9.890594 2.420666 
0.229569 -9.627357 2.746887 
0.714498 -9.683012 2.680080 
1.177903 -9.795488 2.531690 
1.393015 -9.550329 2.785377 
-3.913646 -8.488440 2.584094 
-3.756441 -8.712051 3.002140 
-4.041882 -8.601172 3.189960 
-3.065004 -9.045424 2.986345 
-3.466574 -8.867060 2.942836 
-3.486516 -8.788109 3.459757 
-2.517726 -9.257640 2.920924 
-3.182382 -8.892178 3.291879 
-2.706470 -8.850935 3.535328 
-1.059997 -9.476771 3.002342 
-2.327885 -9.401429 2.556909 
-1.804047 -9.314923 3.177841 
-2.686089 -8.956529 3.390326 
-1.535863 -9.047399 3.562619 
-1.106365 -9.379925 3.278140 
-0.742190 -9.266218 3.568408 
-0.513049 -9.464389 3.198957 
0.711164 -9.457169 3.169533 
1.344491 -9.332252 3.391594 
1.010724 -9.484589 3.023674 
1.646776 -9.383715 3.011524 
2.015413 -9.252011 3.293965 
2.120373 -9.319886 2.834814 
3.316848 -8.870126 3.200552 
3.241935 -9.027923 2.852748 
3.703099 -8.851894 2.982581 
4.318869 -8.918509 2.587176 
3.831591 -8.640937 3.189009 
4.791086 -8.722969 2.673548 
-5.257450 -8.205324 3.690811 
-4.405663 -7.901531 2.454718 
-4.746123 -8.275729 3.206665 
-4.218958 -8.402367 2.937466 
3.601937 -8.491582 3.529719 
3.913556 -8.380209 3.394034 
5.162074 -8.490891 2.716890 
4.228699 -8.428678 3.206012 
5.522106 -8.221813 2.716314 
-6.390549 -7.059851 3.080467 
-6.549266 -7.166936 2.728642 
-6.207802 -7.244681 2.976280 
-5.825297 -7.473450 2.983453 
-5.104362 -8.230836 3.484707 
-5.545937 -7.564536 2.807781 
-5.516543 -7.697620 3.083541 
-4.733308 -7.809338 2.644480 
4.534488 -7.748892 3.506794 
5.284144 -7.663846 3.292923 
5.050210 -8.331553 2.943836 
5.710880 -7.548981 3.173179 
5.960896 -7.432352 3.081609 
-7.319383 -6.390718 2.564426 
-7.193159 -6.194223 3.152757 
-7.275337 -6.256574 2.789203 
-6.881470 -6.783188 2.858141 
-7.068973 -6.418991 3.008335 
7.084459 -6.193655 3.343183 
6.469961 -6.699480 3.764763 
6.725513 -6.612309 3.494396 
6.228075 -7.176518 3.102454 
6.173197 -7.439592 2.715293 
6.424098 -7.031096 2.992179 
6.570784 -6.944035 2.600132 
6.916053 -6.569613 2.842894 
7.325906 -6.266188 2.655398 
-8.213808 -5.235139 3.679055 
-7.700271 -5.590195 3.212172 
-7.500542 -5.557745 2.659412 
-7.545258 -5.789348 3.299957 
-7.371766 -6.000677 2.916448 
-7.400374 -5.974813 2.597306 
-7.528094 -5.693084 2.917869 
7.146598 -6.275842 3.081805 
7.523948 -6.073239 2.794870 
7.436206 -5.974025 3.059583 
8.364141 -5.423143 2.664331 
7.503253 -5.709976 3.208198 
-7.746393 -5.321653 2.967497 
8.826706 -4.623538 2.594895 
8.321848 -5.040505 2.957000 
8.613231 -4.850655 2.775092 
-8.388164 -4.839359 3.489430 
-8.394547 -4.020726 2.635687 
-8.566451 -3.992388 2.974168 
-8.533990 -4.207905 3.190885 
-7.853543 -4.622844 2.615869 
-8.189348 -5.049915 3.345702 
-8.312628 -4.361019 2.958247 
7.616296 -5.346798 3.299355 
8.822408 -3.666202 3.049713 
8.429183 -4.203680 3.214251 
-8.703286 -3.746709 2.809639 
-8.879229 -3.415676 3.004738 
8.211703 -3.996502 3.468538 
8.537391 -3.743505 3.355335 
8.369687 -3.636774 3.611133 
8.707993 -3.329914 3.499040 
8.805654 -3.381310 3.264535 
9.036412 -3.033339 3.013062 
-8.782785 -2.926623 3.622389 
-8.889249 -3.158459 3.312320 
-8.964632 -2.711972 3.378210 
9.117476 -2.651035 3.135992 
-9.494693 -1.178644 2.849665 
-8.965281 -2.016600 3.530767 
9.433016 -2.071058 2.603824 
9.682901 -1.710149 2.507789 
9.330368 -1.944091 2.986353 
9.740786 -1.185836 2.580463 
9.583330 -1.602143 2.651512 
-9.654045 -0.438939 2.255848 
-9.557940 -0.963650 2.558642 
-9.315032 -1.389919 3.322067 
9.491440 -1.448939 2.866758 
9.754793 -0.468975 2.519845 
9.681827 -0.851723 2.676873 
-9.716092 0.092424 2.432199 
-9.459462 -0.707022 3.197007 
-9.618547 0.166204 2.770436 
9.421143 -1.133916 3.165726 
9.334438 -0.150849 3.608814 
9.497270 -0.791019 3.048619 
9.633122 -0.180410 2.729431 
-9.585581 0.612754 2.870440 
-9.910452 0.868448 2.406156 
-9.707703 0.502067 2.622563 
9.436985 0.392541 3.295786 
-9.855467 1.407929 2.465932 
-9.706462 1.093272 2.642633 
-9.700335 1.809011 2.447155 
-9.506515 2.005285 2.540885 
-9.527908 1.314624 2.845629 
-9.459947 1.045380 3.082732 
-9.374864 1.619034 3.057226 
9.471609 1.982135 2.421335 
9.342488 1.257581 3.320107 
9.514254 0.806927 2.941072 
9.425346 1.783883 2.835092 
-9.294758 2.220906 2.806847 
-9.258500 2.132598 3.086665 
-9.053020 2.677568 3.444762 
9.281715 2.211982 3.055270 
8.948234 2.884085 3.336212 
-8.950920 3.514244 2.890776 
-8.730596 3.392775 3.376256 
-8.976617 3.104453 3.141753 
-8.886250 2.960330 3.624631 
-8.427907 3.597939 3.595225 
9.045426 2.986338 3.065001 
8.850936 3.535326 2.706480 
8.867059 2.942837 3.466574 
8.892176 3.291881 3.182384 
-8.643558 4.590767 2.859545 
-8.712071 3.847659 3.102431 
-8.406596 3.847774 3.415993 
-8.333491 4.236819 3.267288 
-7.769555 4.089153 3.727851 
8.529125 4.117146 3.083530 
8.660636 3.863992 3.058960 
8.738508 3.706089 3.029520 
-7.673307 4.455707 3.586826 
7.795450 4.619100 2.538876 
7.768047 5.348255 3.019628 
8.283314 4.420184 2.962809 
8.282861 4.894896 3.349298 
-8.357484 5.249975 2.806999 
-7.504746 5.914663 3.051343 
-8.325460 4.796114 3.058346 
-7.609180 5.500865 3.245351 
7.557179 5.577777 2.809957 
7.450793 5.757340 2.617114 
7.378746 5.991890 2.874136 
-7.465313 6.150708 2.729049 
-6.457370 6.992056 3.040984 
-6.750041 6.680034 3.164231 
-7.106635 6.357753 2.967738 
-7.118000 6.164115 3.322567 
-6.632493 6.621300 3.673183 
7.292062 6.358272 2.642143 
7.170857 6.353765 2.899185 
6.824757 6.801512 2.901454 
-6.402380 7.149912 2.691419 
-5.961172 7.541201 2.951273 
-6.241093 7.111167 3.225247 
-5.707801 7.560924 3.165186 
-5.964406 7.312807 3.239360 
5.281387 7.720896 2.897429 
5.521050 7.676619 3.059944 
6.074528 7.312878 3.016792 
6.459657 7.200351 2.746283 
6.413754 7.050323 3.068833 
-5.255457 7.677624 3.295311 
-5.454687 8.159960 2.836720 
4.929305 8.182298 3.227402 
5.763174 7.554709 3.227859 
-4.932720 8.399939 2.946409 
-4.779509 8.701305 2.705111 
-4.124529 8.300031 3.333794 
-4.027838 8.562920 3.177020 
-3.444996 8.647814 3.468714 
-3.688947 8.548283 3.376179 
-3.706187 8.804851 3.050014 
-3.546936 8.974660 2.821433 
-3.139680 8.974566 3.091250 
-3.261922 8.827288 3.332026 
-1.574454 9.464156 2.851388 
-2.067789 9.406774 2.661203 
-2.000803 9.305029 3.030061 
2.120467 9.374625 2.820076 
1.226737 9.384364 3.226403 
0.825032 9.262212 3.553211 
1.505781 9.079254 3.546889 
2.418355 9.000773 3.414601 
3.346842 8.886899 3.112832 
3.063047 8.935308 3.270381 
3.237329 8.814752 3.483498 
4.241798 8.310845 2.839480 
3.915870 8.488239 2.588259 
3.720507 8.729285 3.015281 
3.694957 8.735362 3.482514 
4.161566 8.485744 3.049573 
-1.331179 9.797005 2.518588 
-1.228714 9.610323 2.742719 
-0.921530 9.502873 3.004997 
-0.186466 9.735826 2.422825 
-0.586772 9.748384 2.558306 
-0.848799 9.691456 2.662685 
0.296152 9.454001 3.264688 
0.511235 9.656816 2.124407 
-0.148168 9.607105 2.809655 
1.082087 9.475251 3.003192 
0.282482 9.619210 2.595458 
-4.529008 -8.594448 3.761535 
-3.831620 -8.720139 3.538420 
-3.029523 -8.738508 3.706090 
-2.543521 -8.696262 3.718474 
-3.083529 -8.529123 4.117146 
-3.058964 -8.660635 3.863995 
-1.911012 -8.791245 3.672072 
-1.315425 -8.864401 3.732083 
-0.654030 -9.087002 3.810349 
-0.868579 -8.840696 3.906169 
-0.607647 -8.866868 4.044620 
0.246158 -9.254155 3.833953 
-0.053074 -9.200100 3.889122 
-0.280583 -9.071317 4.021939 
-0.211930 -8.853967 4.391938 
2.766884 -9.047725 3.309787 
3.281657 -8.668566 3.645007 
2.972802 -8.892525 3.567708 
-5.523515 -7.979155 3.846998 
-4.707478 -8.562075 4.380748 
-5.251964 -8.274030 4.049242 
-4.988042 -8.458678 4.123694 
-5.355264 -8.183025 4.298382 
-2.259939 -8.595926 3.776088 
-1.909680 -8.053992 4.064032 
-2.681601 -8.427135 4.008083 
-1.139662 -8.187651 4.134695 
-1.513202 -8.129219 4.051673 
-1.486420 -7.860496 4.252665 
3.463110 -8.325227 3.863122 
-5.989998 -7.352556 3.228436 
-5.775561 -7.601160 3.470845 
-5.677324 -7.756613 4.202425 
-5.904522 -7.391815 3.854847 
-2.282530 -7.918648 4.276215 
-2.126556 -7.650649 4.526068 
-1.818214 -7.494098 4.706406 
-1.813757 -7.720850 4.346205 
-1.447478 -7.660076 4.483724 
3.935549 -7.425037 4.217231 
3.741482 -7.869430 3.961321 
4.223257 -7.565273 3.791723 
4.813386 -7.342570 3.690080 
4.285847 -7.299508 4.020175 
5.717829 -7.254032 3.458429 
4.913337 -7.095329 3.921956 
-7.073417 -6.148792 3.594500 
-6.659912 -6.680859 3.254256 
-6.122248 -7.141699 3.521617 
-6.178341 -6.885156 3.902344 
4.300040 -7.060874 4.385136 
4.569917 -7.006564 4.259843 
5.064367 -6.893315 4.171952 
6.089000 -7.031808 3.534349 
5.740888 -6.909994 3.889487 
6.609281 -6.431627 3.969402 
-8.019430 -5.514750 4.192624 
-8.050072 -5.452625 3.788532 
-7.375234 -5.964159 3.345514 
-7.764501 -5.519437 4.808458 
-7.436853 -5.884783 3.814077 
-6.983666 -6.051184 4.109982 
6.902241 -6.012638 3.797201 
6.698228 -5.933619 4.194244 
7.086482 -5.893036 3.586927 
-8.641165 -4.412509 3.885934 
-8.503790 -4.808778 3.776881 
-8.349399 -5.165741 4.138905 
-8.525352 -4.838827 4.188322 
7.322568 -5.577789 3.453991 
7.002506 -4.959784 4.029520 
-8.763366 -3.631174 3.400779 
-8.678605 -3.912955 3.345537 
7.001913 -4.497317 4.324462 
7.204064 -4.834426 3.826296 
7.539349 -4.611832 3.614014 
7.285785 -4.442071 3.927138 
7.593961 -4.018893 3.920979 
-8.724597 -3.801882 3.674417 
8.298308 -3.484537 3.867217 
8.743676 -3.074128 3.827424 
-8.431822 -2.607712 3.974737 
-8.618708 -2.361238 3.773758 
-8.728848 -2.611336 3.685634 
-7.903645 -2.430538 4.373955 
8.952238 -2.881731 3.525667 
-8.734633 -1.943658 3.694595 
-8.038032 -2.027219 4.094196 
-8.148099 -1.579548 4.014488 
-7.546625 -2.126276 4.701100 
-7.770794 -1.953665 4.307060 
-7.607031 -1.908403 4.519730 
-8.942941 -1.215466 3.718311 
-9.223804 -0.788966 3.606838 
-7.869992 -1.384205 4.267177 
-8.171258 -1.160426 4.141319 
-8.710466 -0.755884 4.051343 
-8.011280 -0.968261 4.389467 
-7.608846 -1.535304 4.527492 
-9.276479 -0.203385 3.688927 
-8.954211 -0.505464 4.028324 
-9.107528 -0.532373 3.844165 
9.255260 -0.449330 3.889385 
9.183885 -0.112634 3.997582 
8.010988 0.889348 4.476451 
9.248775 0.569051 3.647000 
8.904446 0.458028 4.109200 
9.088686 0.432859 3.911228 
8.783622 0.823302 3.963201 
-9.351591 0.895771 3.481699 
-9.241361 1.820603 3.568193 
7.756583 1.301239 4.416847 
7.588437 1.722839 4.515697 
8.215269 0.998304 4.202619 
7.864305 1.636948 4.213219 
8.954268 2.189050 3.511241 
8.182778 1.558132 4.012478 
8.825500 1.791587 3.667649 
8.956272 1.288151 3.693214 
8.134362 1.324798 4.088929 
7.606081 2.063122 4.553703 
8.190757 1.929160 3.985374 
7.910684 2.136545 4.220058 
8.748195 2.638070 3.676472 
8.624188 2.162174 3.752916 
-8.816660 2.670350 4.518184 
-8.637294 3.171569 3.877829 
-8.417705 3.442501 3.792348 
7.901529 2.454716 4.405664 
8.488439 2.584097 3.913648 
8.712051 3.002143 3.756441 
8.402368 2.937465 4.218956 
8.601173 3.189956 4.041876 
8.788110 3.459755 3.486512 
-7.524159 3.948313 4.067720 
-7.352302 4.359085 3.916201 
8.381375 5.007794 3.718816 
8.717664 3.830386 3.547494 
8.546826 4.421181 3.450089 
-7.323612 4.850514 3.693044 
-7.313150 5.634130 3.436877 
-7.044660 4.920609 3.982997 
-7.033152 5.878938 3.654791 
-6.879354 4.858833 4.307006 
8.304296 5.210021 3.989491 
7.613276 5.704275 3.238958 
8.153063 5.266970 3.578123 
7.175954 6.017336 3.852728 
7.893101 5.600565 3.858560 
7.780037 5.614143 4.527423 
-6.704608 6.029829 4.133939 
-6.662129 6.430762 3.881529 
-6.063661 7.086787 3.465731 
-5.803399 7.012725 3.712225 
-6.374777 6.662668 3.946877 
6.561241 6.642426 3.482312 
7.007333 6.361016 3.222680 
7.449881 5.886312 3.439595 
7.124209 6.116718 3.581713 
7.288545 6.085137 3.174062 
-5.571541 7.327604 3.444429 
-4.627843 7.557595 3.593734 
-5.001062 7.158854 3.804602 
-4.386789 7.488729 3.759042 
-3.992409 7.738069 3.828641 
-4.147693 7.378324 4.050994 
-4.544415 6.966897 4.357004 
-4.511634 7.125080 4.092220 
1.953220 7.567510 4.592315 
1.576538 7.550329 4.613871 
6.048563 7.278067 3.344238 
6.264047 6.996131 3.442821 
-3.816278 7.600207 4.151924 
-3.722439 8.226710 3.656277 
-3.441602 8.404477 3.805186 
1.710030 7.683965 4.396178 
1.477007 7.859605 4.246739 
2.147479 7.785972 4.348672 
4.956467 8.438454 3.848824 
5.170141 8.206852 3.542694 
5.829496 7.537838 3.664006 
5.340625 8.174302 3.831380 
-2.829664 8.970883 3.547458 
-2.760052 9.078786 3.143815 
-3.104718 8.748303 3.752219 
-1.690905 9.317054 3.231524 
-0.691492 9.385558 3.413484 
-0.212236 9.291982 3.727458 
1.105655 8.104004 4.207483 
0.220060 9.212501 3.810185 
0.618118 9.007404 3.904020 
1.365475 8.249892 4.016797 
1.078544 8.924874 3.770603 
1.679575 8.171796 3.999216 
2.485739 8.829706 3.591780 
1.838107 8.828312 3.658064 
1.988724 7.972522 4.132656 
2.343141 8.555968 3.808279 
2.428657 8.010423 4.261758 
2.712249 8.397234 4.050381 
2.835562 8.611487 3.856013 
2.896242 8.800686 3.597350 
3.658196 8.728799 3.723857 
3.269969 8.694567 3.836277 
4.799493 8.399747 3.475757 
4.010014 8.643851 3.294615 
4.499732 8.599671 3.718571 
-4.381040 -8.647804 4.260294 
-3.547492 -8.717664 3.830385 
-4.013511 -8.666289 4.302501 
-0.538850 -8.631744 4.295847 
0.002088 -8.996058 4.370563 
0.652036 -9.296700 3.755966 
0.510071 -8.885517 5.074965 
2.377337 -8.883575 4.761064 
1.904529 -9.155822 4.095321 
2.389718 -9.040448 4.110944 
3.129810 -8.637444 3.973427 
2.707580 -8.828503 4.410954 
-5.070517 -8.358593 4.555975 
-5.413314 -8.051198 4.593742 
-4.948577 -8.307849 4.900481 
-4.468233 -8.516259 4.785141 
-4.471025 -8.399898 5.045879 
-3.964616 -8.582945 4.676858 
-3.718820 -8.381379 5.007790 
-2.962808 -8.283316 4.420180 
-3.450085 -8.546828 4.421175 
-3.349296 -8.282858 4.894898 
-0.947281 -8.168040 4.280601 
-0.734547 -7.919435 4.821301 
-0.288853 -8.480045 4.835138 
3.257091 -8.304852 4.306599 
-5.946446 -7.156086 4.244000 
-2.538878 -7.795450 4.619102 
-3.019629 -7.768048 5.348254 
-2.411315 -7.602704 4.842236 
-2.200637 -7.464325 4.980556 
-1.451508 -7.426169 5.052176 
-2.004000 -7.367441 5.407393 
-1.711215 -7.378888 5.112673 
-0.849998 -7.947954 4.583671 
-1.161598 -7.756638 4.507046 
-1.321190 -7.529972 4.801443 
3.599367 -7.646696 4.466828 
3.703803 -7.400663 4.659832 
3.907949 -7.138488 4.799971 
-6.263927 -6.321016 4.568210 
-6.083028 -6.404130 4.741339 
-6.136898 -6.655573 4.362983 
-5.961866 -6.759315 4.657250 
-5.650133 -7.563240 4.743472 
5.731331 -6.629723 4.439957 
6.121740 -6.537940 4.359368 
-7.851622 -5.572348 4.541663 
-6.408460 -6.330036 4.337331 
-6.718948 -6.090791 4.369912 
-6.661432 -5.979384 4.692693 
-7.437127 -5.687891 4.772150 
-7.329557 -5.557263 5.120028 
-6.518200 -5.815988 5.066604 
-6.321936 -6.016221 4.900050 
-6.136704 -5.940686 5.112744 
6.154178 -6.415174 4.534952 
6.391599 -6.178200 4.558660 
6.534381 -5.728515 4.682484 
-8.603357 -4.309001 4.561924 
-8.594809 -4.602294 4.327078 
-8.474610 -4.827462 4.616199 
-8.299590 -4.948536 4.904323 
-8.107762 -5.216473 4.890821 
6.822580 -4.981864 4.372556 
6.793960 -4.631048 4.755452 
6.530108 -5.344897 5.001907 
-8.727699 -3.405832 3.740288 
-8.684645 -4.121509 4.119405 
7.188433 -4.065993 4.414636 
-8.625582 -3.878213 4.483523 
-8.635557 -3.261263 4.000655 
-8.307965 -2.920128 4.323881 
-8.523706 -3.023164 4.067237 
-8.447573 -3.824440 4.941493 
-8.476362 -3.549250 4.708834 
7.632381 -3.663960 4.345059 
7.367689 -3.706017 4.721205 
8.278290 -3.309399 4.222285 
8.597382 -3.202937 3.901284 
-7.714064 -2.548812 4.775203 
8.674502 -2.753159 4.744952 
8.527286 -2.687095 5.141055 
8.958952 -2.528422 4.273821 
8.844983 -2.350682 4.917157 
-7.525094 -2.332997 4.958574 
-7.448320 -1.809751 4.841685 
-7.389588 -2.128610 5.272337 
9.263921 -1.958574 3.278451 
9.125285 -2.091143 4.057488 
9.026774 -1.974334 4.657157 
9.309532 -0.948610 3.668824 
9.185563 -1.498970 4.151769 
9.025855 -1.507021 4.863520 
-8.041127 -0.750897 4.613825 
-7.624679 -1.171582 4.715035 
-7.844967 -0.819098 4.796491 
-7.705786 -0.848680 5.141668 
-7.369656 -1.734132 5.233550 
-7.457784 -1.394730 4.952114 
-7.551537 -1.036011 5.305140 
-8.325868 -0.286487 5.091266 
-8.654065 -0.388804 4.452187 
-8.893655 -0.172527 4.373601 
-9.091915 0.036872 4.191191 
9.042378 -0.014548 4.287488 
8.835960 0.126328 4.530714 
-9.253663 0.251772 3.842565 
-9.110751 0.638029 4.510046 
7.967174 0.722140 4.775978 
7.697990 1.034579 4.734066 
7.685067 0.869727 5.107994 
8.692869 0.482054 4.311110 
-9.271033 0.641064 3.840923 
-9.044575 2.369140 4.135552 
-9.022807 1.214765 4.891166 
-9.130030 1.609699 4.408242 
-8.964097 1.853723 4.898127 
7.434631 1.419190 5.026222 
7.440869 1.861789 4.869040 
-8.659895 2.459960 5.178118 
-8.902863 2.303098 4.791935 
7.614485 2.401854 4.795303 
7.476022 2.227944 4.989909 
7.390495 2.108796 5.286930 
-8.588819 2.817526 4.810601 
-8.306855 3.297552 4.200620 
-7.747865 3.226775 5.311567 
-7.573349 3.625052 4.515032 
7.564538 2.807792 5.545943 
7.809340 2.644486 4.733311 
8.275731 3.206676 4.746132 
-7.218932 3.864028 4.692016 
-7.098734 4.287186 4.319759 
8.274029 4.049284 5.251968 
8.720140 3.538424 3.831618 
8.594447 3.761543 4.529014 
8.562074 4.380765 4.707476 
8.458677 4.123718 4.988047 
-6.790299 4.641155 4.732912 
8.358586 4.556022 5.070508 
8.307836 4.900536 4.948549 
8.399886 5.045903 4.471007 
8.666288 4.302504 4.013508 
8.516254 4.785158 4.468224 
8.647800 4.260312 4.381049 
8.582942 4.676866 3.964615 
-6.601217 5.640154 4.566053 
-6.515165 5.129627 5.257286 
7.008660 5.997508 4.282151 
8.017156 5.034287 5.202032 
6.688466 5.903140 4.837785 
8.197088 5.341739 4.305649 
7.585361 5.602352 4.839904 
7.955056 5.247189 5.054349 
8.076933 5.335190 4.737923 
-6.329583 6.257540 4.556426 
-6.116625 6.413765 4.578452 
-5.889104 6.427331 4.782444 
-5.924917 6.702884 4.188221 
-5.070632 6.884364 4.188573 
-4.786465 6.754563 4.718424 
5.967824 6.605507 4.751721 
5.987580 6.830196 4.513434 
6.644847 6.164244 4.322506 
6.227334 6.258653 4.688519 
6.353513 6.439619 4.236768 
-4.047338 7.195529 4.437168 
-3.680851 7.391631 4.745992 
-3.584666 7.677042 4.455499 
1.313458 7.526232 4.831431 
1.655100 7.403802 5.029346 
1.493910 7.390706 5.287659 
2.307586 7.550229 4.834471 
1.933642 7.366540 5.395952 
2.033002 7.407166 5.047569 
5.444281 7.783962 4.950332 
6.012526 7.179641 3.878290 
6.058988 6.922831 4.185793 
5.684762 7.552395 4.638883 
-3.235636 8.384429 4.229071 
0.970222 7.685967 4.884961 
0.712509 7.869317 4.977754 
1.153496 7.759991 4.522358 
2.566235 7.791507 4.658079 
3.034216 8.343392 4.407067 
3.133665 8.018646 5.080791 
3.907668 8.356753 5.113027 
4.260107 8.461375 4.971313 
5.159491 8.012846 5.097961 
5.146309 8.196861 4.847850 
4.785803 8.392422 4.872635 
5.111405 8.379414 4.194457 
5.461584 8.083287 4.143569 
5.312685 8.169072 4.559733 
5.589610 7.867650 4.369809 
-2.881211 8.644546 4.539315 
-3.001397 8.271631 5.021598 
-2.719465 8.503294 5.145403 
-2.204224 9.118702 3.931262 
-1.791655 9.162913 4.120409 
-2.563408 8.927354 4.341734 
-2.498926 8.794006 4.869444 
-2.048157 9.000869 4.692539 
-1.289160 9.305853 3.550398 
-1.400845 9.071545 4.753361 
-0.770067 9.267065 3.876884 
0.262798 8.401217 5.016399 
0.147038 8.962528 4.284639 
-0.697430 9.106171 4.534799 
-0.162200 9.111730 4.225670 
0.608099 8.716995 4.154401 
0.831968 8.016249 4.519238 
0.332917 8.642310 4.545063 
3.526617 8.351727 4.944152 
3.182199 8.565245 4.121451 
3.735262 8.533836 4.708050 
4.053958 8.638659 4.475142 
4.715640 8.568754 4.040262 
4.219385 8.677404 4.141878 
4.872692 8.472878 4.541495 
4.485584 8.585401 4.571980 
0.835419 -9.012188 4.914487 
1.564016 -9.115880 4.550708 
1.356147 -9.031083 4.924218 
0.951955 -8.857444 5.305485 
2.008727 -8.987275 4.806675 
1.642422 -8.834864 5.337981 
-4.737977 -8.076966 5.335136 
-3.989505 -8.304306 5.210009 
-3.578130 -8.153072 5.266963 
-4.305671 -8.197105 5.341720 
-0.366440 -7.932948 5.804767 
-0.325805 -8.141369 5.364231 
-0.118256 -8.133135 5.703510 
0.170323 -8.549767 5.386565 
0.013721 -8.043618 5.949450 
0.632218 -8.532133 5.683682 
1.056636 -8.718500 5.541213 
1.424435 -8.386086 5.873748 
2.598541 -8.165406 5.677296 
2.240243 -8.436276 5.646416 
1.748250 -8.631415 5.613425 
2.147191 -8.758528 5.266130 
2.527437 -8.664604 5.113962 
2.810046 -8.461882 5.066263 
2.727130 -8.263850 5.461424 
-5.202110 -8.017186 5.034151 
-5.054431 -7.955111 5.247074 
-5.256135 -7.662647 5.285995 
-4.527488 -7.780040 5.614129 
-3.858601 -7.893132 5.600546 
-2.809957 -7.557179 5.577779 
-3.238960 -7.613276 5.704276 
-2.874141 -7.378746 5.991890 
-2.294713 -7.402520 5.892203 
-2.617115 -7.450794 5.757339 
-1.672922 -7.386603 5.592100 
-0.965864 -7.616377 5.094719 
-0.555005 -7.855405 5.571724 
-1.274805 -7.450205 5.480613 
-1.377829 -7.486838 5.846641 
-0.675050 -7.754550 5.890002 
3.077187 -8.268294 4.840964 
3.221165 -7.643081 5.502967 
3.504095 -7.243819 5.628439 
-5.570975 -7.355430 5.078013 
-5.859588 -6.461948 5.028123 
-5.437141 -7.115198 5.371793 
-5.171647 -7.239725 5.550530 
-4.840055 -7.585370 5.602289 
-4.838320 -6.689120 5.902653 
-3.852799 -7.176002 6.017300 
-4.282354 -7.008690 5.997438 
3.471043 -7.124568 5.969536 
4.335447 -6.850354 4.944649 
4.089660 -6.947107 5.040943 
3.888455 -6.882142 5.849419 
5.303087 -6.519369 5.081957 
4.864092 -6.526546 5.523101 
-6.821821 -5.490344 5.390538 
-7.368547 -5.368267 5.332908 
-7.204225 -5.223990 5.526213 
-5.960386 -6.100285 5.119597 
-5.978859 -5.578660 5.508866 
-5.733595 -5.639447 5.593089 
-5.539112 -5.804200 5.639596 
-5.217085 -6.287866 5.770662 
-5.131834 -6.159656 5.908473 
-4.869235 -6.395320 6.006307 
5.807888 -5.927620 5.735444 
5.350718 -6.174713 5.836541 
5.850681 -6.190151 5.316584 
6.015782 -5.824526 5.617128 
-8.120009 -4.892360 5.213535 
-7.808473 -5.218229 5.228031 
-7.442111 -4.957014 5.603841 
-6.693714 -4.740383 5.946843 
-7.518917 -4.621915 5.703045 
-6.476994 -5.120218 5.789907 
-6.450158 -4.697805 6.082705 
-6.251616 -5.157716 5.843255 
-6.141581 -5.036543 6.032019 
5.966635 -5.436919 6.014073 
-8.416660 -4.560824 4.977765 
-7.974967 -4.663723 5.452384 
-8.485669 -4.118956 4.929279 
-8.219847 -3.979208 5.309940 
-8.256253 -4.368751 5.259237 
-7.301779 -3.769517 5.965753 
-7.738748 -4.373371 5.661446 
-7.962457 -4.143577 5.549685 
-7.074053 -4.214821 5.989196 
6.865073 -4.305091 4.924655 
6.415111 -4.811499 5.888379 
6.573362 -4.638930 5.625063 
-8.211432 -3.360578 5.034822 
-7.646999 -2.845744 5.383966 
-7.837863 -3.043027 5.263754 
-8.116631 -3.670167 5.347560 
-7.542013 -3.410125 5.816783 
-7.621002 -3.127002 5.645255 
7.575495 -3.061096 5.823337 
7.031665 -3.949270 5.047658 
7.322567 -3.524172 5.361383 
8.283964 -2.993803 5.012556 
7.715561 -3.210836 5.401892 
-7.456616 -2.811091 5.818726 
-7.461439 -2.571060 5.594738 
-7.407190 -2.232486 5.913071 
8.262114 -2.744817 5.456737 
8.695757 -2.231076 5.322443 
8.363768 -2.341429 5.665017 
-7.384324 -1.896808 5.649237 
-7.392624 -1.485222 5.357693 
9.046765 -0.833283 4.811794 
8.260427 -2.109702 5.853327 
8.753864 -1.647079 5.467261 
8.581562 -1.786727 5.656518 
-7.959339 -0.482631 5.412390 
-7.453840 -1.535883 5.849760 
-7.469042 -1.225432 5.502159 
-7.785288 -0.621964 5.760487 
-7.696321 -0.830556 6.021916 
8.381754 -0.696272 5.835686 
8.890526 -0.419592 4.990346 
8.585512 -1.109463 5.704411 
8.837925 -1.157096 5.373355 
8.860296 -0.759773 5.234905 
-8.761277 0.273113 5.129928 
-8.536958 0.037168 5.260627 
-8.547306 0.291994 5.488669 
-8.171104 -0.140145 5.617658 
8.208323 0.125861 5.571054 
8.429063 0.363129 4.774006 
8.334365 -0.097645 5.619582 
8.679026 -0.124136 5.132536 
-8.767286 0.663765 5.361581 
-8.926545 0.640775 5.051501 
-8.733745 1.044814 5.519505 
-8.488494 0.692291 5.745853 
8.025925 0.380246 5.506173 
-8.900044 1.362733 5.222495 
-8.543743 1.427781 5.751441 
7.371708 1.636117 5.244472 
7.494542 1.154190 5.450142 
7.462204 1.427395 5.797065 
7.388622 1.737100 5.660819 
-8.747985 1.733061 5.455695 
-8.133505 2.531814 5.746562 
-8.683002 2.139038 5.393432 
-8.501867 1.892330 5.703009 
7.406865 2.352960 5.882075 
7.447952 2.569712 5.706559 
7.385568 2.717907 6.011101 
-8.309614 2.966667 5.036526 
-7.378823 3.390904 5.594726 
-7.456151 3.185800 5.806170 
-8.330455 2.657554 5.468019 
7.473452 2.983492 5.825303 
8.230837 3.484721 5.104372 
7.697617 3.083554 5.516559 
8.205321 3.690849 5.257470 
-7.128682 3.550766 5.839459 
-7.046380 3.966069 4.971593 
-6.877525 4.239799 5.005980 
-6.897084 3.825000 5.957951 
-6.659096 4.275740 5.926255 
7.352547 3.228508 5.990001 
7.601142 3.470915 5.775588 
7.391762 3.855045 5.904530 
8.183009 4.298460 5.355272 
7.756576 4.202625 5.677325 
7.979135 3.847070 5.523543 
-6.567155 4.668855 5.637227 
5.949565 5.107243 6.133222 
6.404018 4.742434 6.082397 
7.156025 4.244423 5.946369 
6.759097 4.658017 5.961617 
7.563058 4.743915 5.650059 
8.051159 4.593886 5.413301 
-6.416883 5.849390 4.845006 
-6.175619 5.726554 5.485779 
-5.908312 6.080740 5.422758 
-5.841653 5.851512 5.780558 
-6.077787 5.473723 5.869249 
-5.456877 6.037936 5.916178 
6.099983 5.120625 5.959452 
5.081618 5.942766 6.181503 
5.599402 5.564614 5.816840 
5.308906 5.938213 5.839791 
5.590734 5.879233 5.551981 
5.805853 5.637107 5.540847 
6.394719 6.007078 4.868594 
5.994789 6.142106 5.069380 
6.158291 5.910319 5.130763 
6.287458 5.771804 5.215888 
6.461501 5.029205 5.858990 
7.662555 5.286214 5.255969 
7.239564 5.550815 5.171308 
7.355061 5.078567 5.570782 
7.115061 5.372241 5.436764 
-5.445025 6.232041 5.657943 
-5.384030 6.551124 4.887583 
-3.970423 7.040697 4.951643 
-4.319191 6.889309 4.810864 
-4.299666 6.664028 5.856115 
-4.742429 6.555639 5.573692 
4.700047 6.403092 6.104096 
5.010620 6.247048 5.966356 
5.802897 6.362962 5.153514 
5.230350 6.289792 5.757477 
-3.832396 6.921021 5.855868 
-3.301843 7.599084 5.370887 
-3.211757 7.524755 5.676472 
-3.534642 7.079128 5.969176 
-3.555899 7.204153 5.602514 
1.019714 7.558572 5.254506 
1.285567 7.464923 5.653979 
1.076580 7.667565 6.168092 
2.365986 7.405196 5.836446 
1.748560 7.389028 5.660264 
2.930401 7.694142 5.381173 
2.601203 7.487406 5.539163 
2.957851 7.532036 5.719227 
3.607058 7.397449 5.920613 
4.037860 7.168993 5.988931 
4.455184 6.859124 6.000049 
4.800632 6.722064 5.905105 
5.631160 7.308462 4.993644 
5.101629 7.710118 5.395864 
5.464853 6.896173 5.399537 
5.163850 7.232541 5.564426 
5.478431 7.276560 5.250014 
-2.783967 8.191031 5.479041 
-0.694147 8.568480 5.648266 
-1.172902 8.555677 5.736043 
0.675478 7.753314 5.804989 
0.383354 8.068480 5.384213 
0.113925 8.194100 5.623602 
3.291394 7.730711 5.596438 
3.441547 8.131511 5.205235 
3.523593 7.584318 5.785413 
3.674099 8.067631 5.401904 
4.747224 7.494822 5.673793 
4.084392 8.157909 5.390375 
4.146466 7.832498 5.634479 
4.810407 8.167832 5.204357 
4.481389 8.200835 5.307326 
4.588778 7.851599 5.548602 
-2.434013 8.378489 5.592333 
-2.350639 8.629427 5.331271 
-2.142469 8.842292 5.094172 
-1.724772 8.901900 5.157775 
-1.279939 8.862329 5.320245 
-1.062149 8.729781 5.526371 
-0.700091 8.946413 5.036653 
-0.263092 8.440055 5.615906 
-0.506510 8.730129 5.344623 
-0.212430 8.769485 5.059266 
-0.011695 -7.822938 6.225127 
1.086409 -8.456638 5.828231 
0.396747 -8.011501 6.098803 
1.869321 -8.339146 5.851214 
1.392880 -8.078593 6.077635 
2.387809 -8.082879 5.869985 
-3.439613 -7.449882 5.886312 
-3.174074 -7.288547 6.085134 
-2.899197 -7.170856 6.353758 
-2.642149 -7.292059 6.358273 
-2.442408 -7.389086 6.140107 
-2.382958 -7.385823 6.613922 
-1.556716 -7.832611 6.773527 
-1.920341 -7.490195 6.151438 
-2.193060 -7.486977 6.414824 
-0.284230 -7.818364 6.196228 
-0.496869 -7.795322 6.092495 
-0.560915 -7.703145 6.558100 
-1.114214 -7.669094 6.195489 
-0.867924 -7.751596 6.410466 
-0.811852 -7.719134 6.094436 
0.247870 -7.678465 6.364862 
-0.186665 -7.663918 6.481036 
-0.426169 -7.585335 6.784204 
0.576307 -6.998802 6.844513 
0.704613 -7.611707 6.364408 
0.252254 -7.489371 6.532864 
2.819781 -7.535291 6.054005 
2.265930 -7.669259 6.164520 
2.644874 -7.338352 6.261280 
3.096020 -7.487211 5.886025 
-4.322807 -6.644964 6.164045 
-3.581754 -7.124218 6.116701 
-3.482581 -6.561317 6.642189 
-3.222723 -7.007333 6.360993 
0.957343 -6.989464 6.737395 
1.719016 -7.183935 6.488068 
2.431459 -7.080500 6.483249 
3.671484 -6.485513 6.743000 
3.404948 -6.711890 6.646651 
2.963786 -6.832034 6.628496 
3.072446 -7.141032 6.285047 
3.347520 -7.087660 6.187016 
3.840805 -6.773489 6.269830 
4.473427 -6.585189 5.859217 
3.788838 -6.637225 6.541511 
4.648983 -6.421088 6.035681 
4.560369 -6.279385 6.302184 
-5.526688 -5.596843 5.908407 
-5.305486 -5.700197 6.242778 
-5.069357 -5.995364 6.140584 
-4.676196 -6.216458 6.278738 
-5.044891 -5.857771 6.427362 
-4.723259 -5.986473 6.608119 
3.840349 -5.926952 6.897273 
5.600365 -5.815716 6.032778 
4.619947 -6.110140 6.398014 
-6.079694 -4.827011 6.310591 
-5.936547 -5.173174 6.038049 
-5.685030 -5.304483 6.303750 
4.450523 -5.805069 6.605980 
4.985087 -5.418870 6.516256 
5.674263 -5.418064 6.242984 
6.212082 -5.453732 5.693920 
-6.703749 -4.186299 6.179858 
-6.394885 -4.211112 6.412650 
-6.227667 -4.524595 6.387429 
4.231800 -5.011618 6.877151 
4.574066 -4.599602 6.852472 
4.985735 -4.381698 6.818198 
5.472340 -5.001232 6.495110 
5.695923 -4.540357 6.601894 
6.092108 -4.446694 6.504058 
6.355776 -4.617889 6.169144 
6.170541 -4.616379 6.356407 
-7.121518 -3.557760 6.135968 
-7.347379 -3.086500 6.014575 
-7.387290 -2.669515 6.039800 
-7.077215 -3.131914 6.340997 
-6.534634 -3.572107 6.623644 
-7.164070 -2.865225 6.406663 
6.812860 -3.030371 6.639133 
6.211692 -3.733490 6.865108 
6.538078 -3.614976 6.728576 
6.705477 -3.737261 6.481615 
7.172197 -3.418295 5.942695 
6.473504 -4.045351 6.513361 
6.907204 -3.830622 5.893613 
6.607459 -4.169351 6.218439 
7.428122 -2.893135 6.095543 
7.078788 -3.024805 6.372649 
-6.864804 -2.957109 6.691096 
-7.303276 -2.425489 6.817971 
-7.255533 -2.619461 6.509608 
-7.395954 -2.411976 6.255670 
-7.492115 -2.224053 6.607708 
7.534076 -2.500506 6.179678 
-7.727482 -1.047732 6.322046 
-7.709809 -1.888963 6.792296 
-7.519480 -1.965037 6.253084 
-7.810330 -1.620733 6.756857 
7.192156 -2.538109 6.398820 
8.316142 -1.256394 5.938476 
8.023213 -1.785572 6.066697 
7.401999 -1.951899 6.349072 
-7.846845 -1.329188 6.766151 
-7.825788 -0.438605 6.071875 
-7.743673 -0.701889 6.251433 
-7.735101 -0.671301 6.524909 
6.778769 -1.521052 6.829465 
7.105462 -0.931101 6.655925 
7.040164 -1.475887 6.610018 
7.612392 -0.734532 6.359033 
-7.842074 -0.137723 6.177194 
-8.082262 0.072141 5.928665 
-7.956590 -0.290608 5.859029 
-7.729990 -0.332398 6.394951 
-7.636741 -0.505938 6.773654 
-7.718782 0.070011 6.346804 
7.468726 -0.093238 6.609527 
7.594830 -0.269460 6.444458 
8.021767 -0.029685 5.981281 
7.728759 0.156405 6.365137 
7.893550 -0.188385 6.158340 
7.857607 -0.503834 6.213090 
-7.972749 0.289737 6.105344 
-8.003245 0.596786 6.123056 
-7.549331 0.487422 6.434235 
-7.091971 1.176547 6.613629 
-6.848526 1.174260 6.822467 
7.676138 1.100619 6.205568 
7.741645 0.741559 6.081341 
7.755963 0.865339 6.462334 
7.681367 0.500621 6.612648 
7.739814 0.533662 6.372686 
7.792799 0.599018 5.815255 
7.880050 0.297518 6.028737 
-8.133805 1.504555 6.039002 
-7.626074 0.880869 6.341264 
7.881495 1.281768 7.014657 
7.823158 1.541708 6.737850 
7.767743 1.811364 6.895688 
-8.124332 1.909578 5.985177 
-8.238583 2.241300 5.818146 
-7.540873 2.441357 6.191361 
-7.371477 2.035191 6.353176 
-6.772135 1.870253 6.795359 
7.281766 2.453712 6.782310 
7.362023 2.569294 6.206519 
7.515068 2.023135 6.283111 
7.446528 2.241214 6.180419 
7.416979 2.339958 6.564726 
-7.452228 3.028728 5.981791 
-7.433722 2.814806 6.133315 
-7.099797 3.345829 6.166849 
-6.470769 3.812555 6.674170 
-6.639018 3.825903 6.499667 
-6.666819 3.414207 6.692365 
-7.077189 3.136635 6.335829 
-7.061809 2.456736 6.498047 
-6.794579 2.830213 6.683315 
-7.157244 2.767470 6.369845 
7.244680 2.976312 6.207786 
6.783167 2.858229 6.881408 
7.059853 3.080536 6.390504 
7.166927 2.728685 6.549226 
-6.093773 4.346354 6.556678 
-6.440312 4.564883 6.081428 
-6.291168 4.603693 6.260199 
-5.749712 4.408486 6.640672 
-4.630540 4.306946 6.960945 
6.681071 3.254303 6.659674 
6.436936 4.116580 6.421196 
6.655530 4.363569 6.136664 
7.141673 3.521750 6.122231 
6.884993 3.902799 6.178283 
-4.677468 4.590096 6.824131 
6.016004 4.901502 6.320412 
5.903782 4.836512 6.684580 
5.706263 5.259128 6.385279 
6.112971 4.593874 6.492620 
6.321132 4.568953 6.263355 
-6.036139 4.644444 6.424304 
-5.785268 5.430177 6.170893 
-5.288187 5.118656 6.506879 
-4.275954 4.987180 6.862016 
4.220504 6.035729 6.953329 
4.726987 5.956754 6.685772 
5.051107 5.861886 6.392889 
-5.598539 5.770965 6.071684 
-4.711486 6.421996 5.966101 
-4.607758 6.315852 6.230219 
-4.528875 5.778004 6.582312 
-4.572081 6.093025 6.428655 
-3.693079 6.680888 6.538294 
-3.459742 6.612365 6.730237 
-4.261118 6.023084 6.631889 
-3.942319 6.399830 6.650724 
-2.649724 7.040133 6.491691 
-1.456129 6.950923 6.682600 
3.562685 6.626890 6.536662 
4.372795 6.256883 6.475302 
4.403806 6.373304 6.330806 
-2.953764 7.118409 6.348254 
-2.949749 7.513067 5.996197 
-3.217357 7.172190 6.169339 
-2.191219 7.323332 6.359047 
-1.269938 7.257635 6.496974 
-0.919459 6.921846 6.797983 
-0.267581 7.494373 6.526747 
0.943732 7.746902 6.401452 
0.782640 7.723681 6.078504 
0.251909 7.605005 6.605911 
0.756124 7.753006 6.633668 
0.553549 7.646740 6.824179 
2.281775 7.429312 6.197761 
1.874012 7.481889 6.105697 
3.043187 7.378727 5.965814 
2.500693 7.353037 6.350259 
2.675688 7.394753 5.965510 
2.762886 7.269802 6.280583 
3.190707 7.274644 6.084336 
2.905682 7.022218 6.575716 
4.147483 6.722595 6.189813 
3.196867 7.037980 6.344654 
3.621756 7.161900 6.080002 
-2.237748 8.258505 5.806237 
-2.562251 7.448438 6.213339 
-1.781878 8.261230 5.929740 
-1.199260 8.272886 5.962519 
-1.476357 7.978214 6.118205 
-0.630354 7.623294 6.366041 
-0.649489 8.196159 5.983778 
-0.223128 7.804451 6.262945 
-0.121545 8.018204 6.026785 
0.089736 7.668002 6.443316 
0.478306 7.886196 5.727507 
0.149376 7.826941 6.198156 
0.518501 7.746266 6.365419 
0.226005 7.933213 5.958645 
0.482984 7.798831 6.130208 
1.269834 7.871444 6.884440 
-2.087231 -7.439173 7.390277 
-1.873189 -7.744835 6.939778 
-2.046848 -7.594879 7.201224 
-1.801159 -7.724938 7.372557 
-1.598285 -7.854297 7.171581 
-1.376650 -7.759367 7.524868 
-1.135326 -7.859331 6.951694 
-1.343693 -7.872746 7.208485 
-0.833314 -7.491598 7.503604 
-0.957612 -7.749641 7.245902 
-0.338169 -7.415155 6.977993 
-0.201376 -7.141881 7.148417 
-0.023347 -7.424213 6.716074 
-4.240680 -6.355788 6.435256 
-3.069124 -6.413608 7.050268 
-2.901494 -6.824743 6.801489 
-2.544852 -7.184880 6.796543 
-2.531880 -6.978850 7.070797 
-2.476628 -6.815150 7.252704 
-2.746434 -6.459588 7.200290 
-2.519252 -6.447008 7.332136 
-2.318253 -6.627912 7.431106 
-1.983762 -7.195590 7.657990 
-1.737886 -7.546682 7.663546 
-1.889276 -6.886836 7.726419 
-0.964698 -6.491765 7.766561 
-0.596285 -6.566056 7.712627 
-1.588125 -6.712549 7.803827 
-1.405731 -6.836440 7.857058 
-0.574848 -6.775245 7.667253 
-0.358119 -6.898818 7.483975 
0.023479 -6.663713 7.446340 
0.718751 -6.717226 7.092043 
1.642029 -6.776255 6.809980 
2.518702 -6.398632 7.192845 
2.813130 -6.524007 6.972054 
3.204686 -6.275088 7.096546 
-5.072514 -5.544561 7.438743 
-4.827722 -5.497219 7.789630 
-4.682312 -5.705098 7.475135 
-3.437205 -6.264353 6.998444 
-4.271381 -6.060469 6.869264 
-3.873909 -6.002465 7.204500 
-3.370154 -6.085572 7.227283 
-3.017323 -6.074471 7.312820 
-3.260502 -5.892595 7.454430 
-2.179677 -6.334511 7.473948 
-2.590301 -6.127163 7.370988 
-2.472720 -5.782087 7.423064 
-1.850281 -6.204283 7.525726 
-2.243101 -6.048251 7.421741 
-1.102494 -6.169367 7.662804 
-1.486094 -5.817680 7.457045 
3.284796 -5.431880 7.589525 
3.131481 -5.746000 7.566901 
3.441067 -6.015628 7.121868 
3.587698 -5.621328 7.168132 
-5.405978 -5.410408 7.096678 
-5.866031 -5.014049 6.463639 
-5.550851 -5.085015 7.402748 
-5.196945 -5.293808 7.732298 
-2.869772 -5.425766 7.644971 
-2.628327 -5.580936 7.485147 
-1.889740 -5.543220 7.365614 
-2.095129 -5.279747 7.388840 
-1.135413 -5.360244 7.505096 
-1.388994 -5.538245 7.418334 
3.798203 -5.006234 7.160279 
-6.243119 -4.001298 6.730031 
-5.910055 -3.743783 7.396022 
-5.955454 -4.641510 6.793164 
-1.766905 -5.034217 7.390891 
-2.259202 -4.986900 7.483340 
-2.142934 -4.682425 7.563409 
-1.439222 -5.059900 7.428903 
-1.648507 -4.630928 7.534138 
3.593804 -4.589436 7.579561 
3.719293 -4.238134 7.652920 
3.904140 -4.297591 7.393579 
4.147523 -4.473688 7.103110 
4.642984 -4.113971 7.059229 
5.067661 -3.905295 7.056578 
4.383285 -3.984469 7.273603 
5.849105 -4.157184 6.736173 
-6.251707 -2.894858 7.248057 
-6.128804 -3.553066 7.126014 
-6.346583 -3.321124 6.970635 
-5.783954 -3.436996 7.576606 
-5.763625 -3.057004 7.535064 
-6.021048 -3.207892 7.325838 
5.985206 -3.378529 7.188169 
5.795503 -3.758008 6.985953 
5.610217 -3.515906 7.243921 
6.530316 -2.714236 6.979451 
6.165549 -3.131003 7.220004 
6.307685 -2.912996 7.179779 
-6.967822 -2.498793 7.130630 
-7.388539 -2.167612 7.295539 
-7.120855 -2.016837 7.641269 
-6.545107 -2.986245 6.982745 
-7.002587 -2.581958 6.983163 
-6.536956 -2.665462 7.209365 
-6.262351 -2.456917 7.387042 
-6.735722 -2.415665 7.336263 
-6.485464 -2.253907 7.464548 
-5.971484 -2.724048 7.393043 
-5.758548 -2.454962 7.421054 
-5.998837 -2.188729 7.421196 
-5.424002 -2.800864 7.605203 
-5.688703 -2.675267 7.479738 
5.928739 -2.928341 7.603513 
6.357631 -2.476323 7.260234 
-7.866662 -1.467248 7.168952 
-7.769263 -1.548199 7.454231 
-7.798105 -1.258931 7.406887 
-7.593230 -1.388593 7.703874 
-7.373999 -2.030867 7.529204 
-7.603815 -1.721292 7.599381 
-7.134629 -1.600201 7.856537 
-7.403290 -1.683866 7.770642 
-6.952656 -1.822298 7.778666 
-6.354548 -2.049332 7.521318 
-6.814082 -1.359320 7.857848 
-6.704545 -1.584087 7.797195 
-6.032438 -1.690940 7.489289 
-5.008941 -2.286662 7.489974 
-5.111687 -1.759595 7.382861 
-5.370374 -2.055582 7.368363 
-5.550125 -1.619332 7.381962 
-4.556213 -2.117959 7.626212 
-4.850414 -1.933894 7.452136 
6.334848 -2.056746 7.406516 
6.549206 -1.447784 7.140628 
-7.839983 -1.109787 7.155318 
-7.658058 -0.907810 7.375635 
-7.030080 -1.163134 7.858991 
-7.377892 -0.793231 7.559059 
-6.538977 -0.676040 7.735465 
-6.821608 -0.524243 7.630390 
-6.442663 -0.886821 7.756233 
-6.148246 -1.071136 7.661268 
-6.016635 -0.769371 7.722192 
-5.639057 -1.292554 7.463672 
-5.415964 -1.065106 7.534843 
-5.094188 -1.257642 7.471722 
-5.105559 -0.853485 7.699288 
-4.836458 -1.518819 7.464967 
-4.532125 -1.608309 7.589268 
6.760162 -0.862984 6.991972 
7.060573 -0.394827 6.854212 
-7.527299 -0.152924 6.666234 
-7.314080 -0.271119 7.038995 
-6.995852 -0.274101 7.351786 
6.660491 0.188959 7.541965 
7.297152 0.070746 6.885725 
6.616176 -0.134749 7.438489 
-7.460106 0.093527 6.617560 
-6.995943 0.481435 6.872002 
-6.671072 0.707501 7.153595 
-6.649492 0.077745 7.433587 
4.832181 1.188631 7.568674 
5.282585 0.973547 7.586883 
5.938652 0.807242 7.698835 
6.664041 0.539826 7.678477 
6.503622 0.852701 7.765097 
6.253721 0.724996 7.746819 
7.364235 0.942698 7.686407 
7.538921 0.903680 7.527248 
7.000708 0.211597 7.287032 
7.542800 0.367494 6.794929 
7.356288 0.364759 7.093105 
7.693086 0.936489 7.340866 
7.608521 1.310301 7.685189 
5.075043 1.356044 7.448541 
5.319384 1.570984 7.379342 
5.022396 1.827802 7.395651 
5.610695 1.257309 7.467771 
6.250031 1.093339 7.691167 
6.758347 1.534578 7.831510 
7.148582 1.611412 7.847973 
