-15.140600 51.843700 20.132999 
-15.140600 53.097500 20.532101 
-15.285300 53.280399 20.532101 
-8.424560 0.872184 16.541000 
-8.489650 0.153447 16.541000 
-7.616930 -0.243023 18.536600 
-8.819620 -0.243023 16.314100 
-8.424560 0.946386 16.526699 
-9.747720 -0.639493 15.343700 
-9.609750 -0.639006 15.742800 
-15.930700 -0.639493 15.794400 
-15.930700 0.153447 16.005501 
-9.609750 0.291917 15.343700 
-8.469850 -0.639493 16.541000 
-8.174100 5.307560 13.348100 
-8.413220 0.946386 16.541000 
-8.029500 5.100400 13.348100 
-6.449240 -0.639493 19.285801 
-8.029500 5.307560 13.171900 
-4.893580 -2.225370 7.361450 
-9.609750 -2.621840 6.774540 
-6.453270 -1.828900 8.159670 
-4.868990 -2.225370 7.316890 
-2.893680 -3.498200 6.563220 
-4.868990 -2.369960 7.361450 
-3.288740 -3.093590 -1.419020 
-3.288740 -3.018310 -1.229810 
-3.560330 -3.018310 -1.419020 
-16.720900 42.179298 -8.542150 
-13.955400 42.972198 -5.897390 
-14.680900 42.575699 -5.011030 
-14.350500 42.575699 -5.346750 
-14.804900 45.351002 -9.401260 
-14.745600 45.351002 -9.371940 
-15.140600 53.280399 20.689199 
-15.198600 51.298100 19.334801 
-14.350500 42.504200 -5.011030 
-14.745600 45.389900 -9.401260 
-0.358022 33.751701 17.708200 
-6.020230 33.354000 6.461300 
-2.893680 26.758101 0.975655 
0.410277 21.769199 23.414499 
11.275100 34.330601 14.630300 
-31.964600 62.190601 3.757410 
-30.330500 76.795303 1.975450 
-19.308701 65.191902 -9.790340 
-20.946501 46.994400 -12.640400 
-21.783199 55.351799 -9.319690 
-3.847180 80.685699 12.090300 
10.854300 80.544701 -1.139100 
-2.371010 77.594002 -8.004680 
-6.448940 66.576599 -16.566601 
15.593600 47.668301 28.471701 
23.077999 45.834801 15.723200 
21.190701 87.285797 -0.144343 
22.876900 90.005699 6.920920 
28.681101 80.343697 0.762501 
21.296200 55.299801 20.832300 
18.742100 74.777199 6.307440 
11.838000 79.950203 10.123200 
28.466700 74.277603 6.894120 
-5.414900 43.436901 -13.702800 
6.155800 53.745399 -18.590300 
8.941600 40.673500 -11.076300 
2.736990 0.153447 -9.800370 
2.911980 5.181660 -6.108330 
5.652260 0.153447 -5.809250 
12.454100 0.153447 -3.813690 
-12.971600 19.768101 11.376800 
-8.344570 23.346800 10.941100 
-19.662500 2.276160 10.869100 
-16.475599 0.153447 15.742800 
-29.862200 33.650501 -12.973200 
-23.653000 28.132200 -20.161900 
-28.089001 27.773001 -19.666000 
-16.720900 30.285200 -9.323050 
-21.461599 28.545000 -4.611910 
-20.824600 64.778198 3.996980 
-16.192699 74.935501 4.333800 
-21.736799 51.478298 8.966660 
-3.828000 45.560902 31.603800 
4.263790 40.635201 28.588301 
-0.743683 57.020699 34.249298 
-9.742680 54.176701 22.290001 
-15.157000 50.505100 19.334801 
-14.497800 43.651501 19.503300 
-7.824960 37.863499 21.576099 
-22.448799 33.423801 -10.766200 
-17.511000 39.721802 -10.997700 
-20.975599 48.925598 -3.039540 
-23.055401 45.317402 -8.067150 
-7.977230 74.585403 20.818600 
-16.146999 66.612099 20.410500 
6.806220 70.681396 -13.894600 
16.126699 61.083500 -13.056500 
0.070417 22.962799 -8.320530 
-7.552520 25.763300 -15.372000 
11.481500 21.082300 0.526057 
15.384800 19.914301 13.229200 
9.821090 19.344801 21.718300 
10.628000 33.164398 3.756310 
3.828060 32.074100 1.060240 
22.211901 65.207901 -3.978840 
15.569100 72.279297 -7.714580 
21.540899 49.254700 -5.946270 
20.391001 42.486198 -0.436052 
1.637630 15.559200 -13.959100 
-4.820380 13.375300 -20.945400 
-4.669370 -0.243023 -11.795900 
-8.495000 -2.972260 -12.732400 
-15.325600 7.754170 -19.468100 
-4.868990 -0.097626 -11.795900 
-4.868990 -0.449534 -11.795900 
-23.101601 26.299999 2.882450 
-26.554300 17.061701 7.219950 
-28.197001 9.872460 1.884990 
-28.485001 22.528400 -7.567220 
-20.958099 -2.572730 -0.854414 
-0.258047 60.095402 29.509800 
2.083050 65.158798 28.406601 
15.417200 63.521198 22.826000 
16.307899 70.833801 20.630199 
6.475570 75.199699 22.215900 
25.011700 61.453602 4.903510 
24.003901 65.092796 11.295200 
-18.885700 -2.984470 -9.933170 
-24.977100 8.790190 -11.488300 
14.069700 -2.714100 2.097480 
5.684730 -2.597810 8.984770 
12.858500 -1.828900 -3.015470 
10.729200 10.703000 2.741350 
10.398500 5.839020 4.875590 
3.428670 5.994640 14.543200 
-2.820840 6.378810 16.487200 
-0.528195 -0.429000 21.453199 
-3.716680 -3.228120 19.879700 
-7.239370 -1.035960 18.719700 
6.513360 -3.135240 -4.990750 
12.118700 -1.432430 -3.908910 
3.032260 -2.286870 -9.800370 
-9.371860 -3.042530 0.288870 
-4.473930 -2.589860 -1.419020 
