2.527955 -7.226815 -6.761026 
2.751995 -7.153493 -6.531747 
3.221095 -6.355247 -7.010656 
3.356555 -7.049270 -6.247140 
-4.050793 -4.945622 -6.987299 
-3.611523 -6.590737 -6.703372 
-3.633081 -6.055550 -6.989597 
4.095132 -6.016216 -7.093595 
4.963730 -5.953767 -6.361616 
4.712025 -5.665084 -7.558096 
-4.610079 -5.987670 -6.473274 
-5.940474 -4.628414 -6.482250 
-6.154984 -3.814999 -6.840588 
6.165685 -3.727039 -6.976234 
6.080959 -4.407049 -6.727571 
-7.268149 -3.007728 -6.181224 
-6.643045 -3.680535 -6.617041 
-6.219435 -2.889204 -7.289112 
7.057741 -3.231874 -6.297521 
-6.792630 -2.950038 -6.658373 
-6.432156 -2.463172 -7.139795 
6.787689 -2.922236 -6.807824 
6.957566 -2.563961 -7.079044 
7.249287 -2.574572 -6.587844 
-7.299596 -2.481895 -6.327026 
7.863304 -1.639079 -7.136842 
7.428030 -2.314506 -6.387673 
-6.823851 -0.985602 -6.862661 
-7.254419 -0.765958 -6.565952 
7.681646 -0.482943 -6.603340 
7.836954 -1.476785 -6.754453 
7.861474 -1.147993 -7.102969 
-7.667935 0.506478 -6.736976 
-7.513276 -0.115547 -6.541703 
7.397123 -0.274770 -6.936904 
7.787447 -0.292817 -6.231384 
7.649311 0.028013 -6.448065 
-7.761656 0.625147 -6.104881 
-7.775000 0.232045 -6.297061 
-7.846543 1.091595 -7.181132 
7.518430 0.530255 -6.439625 
-7.820043 1.367024 -7.408382 
-7.663551 1.737887 -7.546675 
-7.850036 1.676647 -7.093584 
-7.841504 1.518700 -6.787520 
6.818362 0.823394 -6.926365 
-7.218398 2.484187 -6.881492 
-6.796554 2.544858 -7.184868 
6.835961 1.633676 -6.749313 
-7.272764 2.589275 -6.485598 
-6.801568 2.901480 -6.824680 
6.143618 3.088837 -7.265036 
6.426871 2.596269 -7.119275 
7.336313 2.668581 -6.274400 
-7.049019 3.114596 -6.379025 
-6.085531 3.629944 -7.144500 
-6.378643 2.976188 -7.121660 
5.933498 3.637882 -7.028456 
4.735152 4.215261 -6.952802 
-6.114799 4.306637 -6.732173 
5.795412 4.582118 -6.541011 
-5.453062 5.340044 -7.183972 
-4.897106 5.617505 -7.515961 
4.017144 4.553292 -7.144036 
4.399928 4.882535 -6.831040 
-4.609902 6.067596 -6.570428 
-3.678576 6.130701 -7.080258 
-2.549202 6.961145 -7.068460 
-3.023911 6.823875 -6.678577 
1.185830 6.642618 -7.049903 
3.037378 6.535235 -6.919751 
3.731556 6.589222 -6.630927 
3.380151 5.744119 -7.299859 
3.830625 5.893607 -6.907204 
4.543139 6.090832 -6.459290 
5.318490 5.920439 -6.152700 
-3.049807 7.142361 -6.302597 
-2.586730 7.194425 -6.691052 
-2.598987 7.317745 -6.333849 
-2.275118 7.460811 -6.579002 
-1.612945 7.865516 -6.957902 
-0.916499 7.604282 -7.475710 
-0.539821 7.678475 -6.664043 
0.908814 6.984121 -6.731701 
-0.322350 7.759020 -6.317061 
-1.176437 7.875174 -7.138356 
0.119537 7.602768 -6.459180 
0.438323 7.826822 -6.251801 
-1.855357 -8.778073 -5.395633 
-2.259800 -8.323998 -5.753237 
-1.485951 -8.315327 -5.943964 
-0.985677 -8.675987 -5.617444 
-0.385370 -8.765988 -5.240921 
0.064911 -8.017709 -5.955168 
4.452820 -7.958041 -5.532725 
-3.088862 -7.265037 -6.143598 
-2.771466 -7.412605 -6.174306 
0.291028 -8.150706 -5.391470 
0.852067 -7.723191 -6.218957 
0.555826 -7.822043 -5.780563 
2.118536 -7.471132 -6.241748 
3.173117 -7.390739 -5.940916 
2.465994 -7.363911 -6.308058 
3.671603 -7.351116 -5.957724 
5.002580 -7.521392 -5.563606 
-4.582120 -6.541011 -5.795412 
-3.637889 -7.028454 -5.933489 
4.486857 -6.764399 -6.037382 
-4.257191 -6.497464 -6.312721 
-5.637902 -5.823162 -6.017085 
4.523082 -6.314566 -6.292995 
5.662680 -5.385819 -6.126517 
5.682978 -5.678023 -5.579103 
5.923052 -6.152366 -5.104981 
5.103483 -6.173774 -5.918322 
5.968692 -4.906366 -6.391847 
6.104943 -5.096395 -5.961993 
6.308619 -4.940752 -5.979348 
6.723446 -4.562732 -6.010307 
7.430342 -5.290293 -5.411736 
7.787738 -4.618988 -5.589364 
7.943484 -4.964784 -5.333919 
-6.338985 -4.685677 -6.151332 
6.360665 -4.353144 -6.354350 
6.969469 -3.945325 -6.111878 
8.022745 -4.190504 -5.507598 
-7.536043 -3.163207 -5.782723 
-7.086256 -3.516899 -5.981790 
7.471879 -3.548136 -5.879223 
7.502464 -3.207763 -5.835227 
8.320033 -3.951106 -5.210936 
7.295577 -2.889121 -6.145584 
-8.310931 -1.966005 -5.855727 
-8.402284 -2.449064 -5.582501 
7.455534 -2.111028 -6.154148 
-7.783462 -0.590427 -6.270786 
-7.948619 -0.113253 -6.102979 
-8.355795 -1.293504 -5.928058 
7.387861 -1.446261 -5.457398 
7.734509 -0.793579 -6.258698 
7.840012 -0.457909 -5.963407 
-8.598001 -0.753392 -5.644907 
7.966862 0.180349 -6.110549 
8.681752 0.437570 -5.420958 
-7.490802 2.126093 -6.292681 
-7.759569 0.987280 -6.424459 
8.302420 1.907134 -5.885838 
8.631868 1.351770 -5.688855 
-7.393364 2.520839 -6.102446 
-7.311812 3.079656 -6.059176 
7.121692 3.046163 -6.326318 
6.703387 3.611490 -6.590739 
7.432359 3.081675 -5.960825 
-7.482612 3.423162 -5.872151 
-7.119813 3.703688 -6.086060 
6.989606 3.633066 -6.055552 
7.372308 3.332404 -5.708689 
-7.766515 4.392839 -5.647046 
-6.629217 4.516872 -6.082050 
-6.325346 4.568938 -6.264000 
6.312741 4.257143 -6.497480 
6.473276 4.610070 -5.987675 
-7.471905 5.029913 -5.565684 
-5.565924 5.798498 -5.613022 
-6.239204 5.105640 -5.889564 
-5.759688 5.457824 -5.753797 
-5.968401 4.967078 -6.332654 
-5.162826 6.160115 -5.868495 
6.017086 5.637903 -5.823160 
-4.437385 6.346067 -6.333022 
-4.831263 6.477704 -5.986410 
-5.152349 7.313029 -5.566757 
-3.877282 6.990880 -6.128374 
-2.764873 7.375049 -6.014899 
-2.176878 7.439184 -6.145720 
-1.341622 7.448700 -5.711353 
-0.837046 7.750163 -6.352926 
-0.564137 7.790254 -5.949562 
3.116505 7.288536 -6.094809 
4.422120 6.527553 -6.098260 
-4.533955 7.775424 -5.612178 
-3.041266 7.606813 -5.637783 
-3.393336 7.406827 -5.928762 
-0.064217 7.959824 -6.021685 
1.408964 8.292962 -5.962589 
2.730725 7.199795 -6.347576 
0.512658 8.520294 -5.669046 
-2.526924 -8.561584 -5.318356 
-0.980343 -8.952444 -5.132922 
-1.808146 -9.068016 -4.717038 
-2.854596 -8.501912 -4.948070 
0.915157 -7.800212 -4.682728 
3.597609 -8.300455 -5.089480 
3.888309 -8.211370 -5.322310 
4.684913 -8.295837 -5.131989 
1.693319 -7.360369 -5.378234 
1.108844 -7.521413 -5.099568 
1.347635 -7.449722 -5.682603 
2.540203 -7.401166 -5.958897 
2.709627 -7.506722 -5.581773 
2.991847 -7.588764 -5.623962 
5.118070 -8.108534 -5.060390 
-5.920447 -6.152695 -5.318488 
-4.882535 -6.831040 -4.399927 
-4.215261 -6.952804 -4.735145 
5.446590 -7.409773 -5.255561 
5.543735 -7.791462 -4.750860 
-6.170238 -5.540542 -5.705969 
6.322031 -6.220261 -4.621821 
6.328194 -5.879467 -5.078042 
8.293848 -4.594577 -5.172725 
8.528293 -4.500919 -4.762182 
8.663900 -4.284992 -4.278827 
7.706626 -2.992952 -5.426232 
8.257984 -3.474038 -5.064662 
-8.809111 -1.466722 -5.434209 
7.415266 -2.664444 -5.859144 
-8.976352 -0.717119 -4.984028 
7.392859 -1.810210 -4.946918 
7.513487 -1.150676 -5.059993 
-8.643262 -0.222624 -5.311759 
-8.115448 0.099066 -5.786886 
8.106813 -0.209261 -5.639817 
-7.907505 0.429129 -5.732960 
-7.467244 1.251787 -5.079939 
-7.375053 1.572635 -5.555965 
8.903371 0.923934 -5.254208 
8.564241 2.292278 -5.493318 
-7.685273 3.012640 -5.488628 
-8.113193 3.865821 -5.424487 
-8.490037 3.777770 -4.840577 
-8.277558 3.452527 -5.019747 
6.987304 4.050785 -4.945621 
-8.478030 4.885082 -4.550936 
-8.447398 4.342518 -5.008568 
-8.160706 4.637103 -5.318740 
-7.778481 5.212459 -5.263092 
-8.081369 5.210953 -4.957890 
-7.063374 5.440223 -5.386347 
-6.167555 5.906349 -5.112933 
-6.446628 6.053844 -4.729253 
-5.949490 6.203449 -5.062559 
-5.968882 6.480302 -4.855399 
5.705967 6.170238 -5.540544 
-5.500976 7.411794 -5.169410 
-5.563984 7.821022 -4.647398 
-2.610970 7.437619 -5.735961 
-1.688699 7.360974 -5.338337 
-1.184598 7.505810 -4.987018 
3.502548 7.125746 -5.921266 
4.030278 7.061399 -4.757459 
-5.116097 7.952525 -5.232024 
-4.364543 8.157967 -5.392559 
-4.907870 8.290554 -4.984808 
-3.923369 8.262910 -5.269787 
-4.723310 8.533522 -4.540442 
-4.091579 8.524348 -4.899645 
-0.828039 7.848830 -4.739613 
3.266654 7.513013 -5.605559 
-0.160579 8.162500 -5.595865 
0.278344 8.784456 -5.104247 
1.197435 8.848721 -5.374306 
0.950107 8.972450 -5.090727 
2.104426 8.845730 -5.127206 
2.350721 8.385337 -5.648051 
2.522965 8.762510 -4.921803 
-2.417106 -8.906161 -4.678076 
-3.224080 -8.857933 -3.281004 
0.214015 -8.729108 -4.598085 
0.580338 -8.735631 -4.163250 
0.140469 -8.990452 -4.253150 
3.080691 -8.498904 -4.194536 
4.026260 -8.551751 -4.800761 
4.422715 -8.594638 -4.640611 
-3.273633 -7.487962 -5.632277 
-3.325328 -8.463569 -3.902302 
1.579047 -8.180924 -3.997974 
1.085710 -8.036699 -4.264012 
1.795516 -7.834055 -4.209979 
2.709351 -8.476752 -3.964858 
4.908765 -8.480815 -4.467861 
5.259730 -8.286344 -4.250515 
-3.920981 -7.593957 -4.018896 
-3.825470 -7.320999 -4.527741 
1.739086 -7.455717 -4.740902 
2.138364 -7.432188 -5.003847 
2.373452 -7.755191 -4.498005 
5.625396 -7.851345 -4.187726 
-6.090838 -6.459289 -4.543131 
6.013520 -7.104638 -4.103322 
6.026476 -6.566947 -4.684915 
-6.527556 -6.098258 -4.422117 
-6.504130 -4.857945 -5.545735 
7.737140 -5.468876 -4.988738 
6.712650 -6.143598 -4.270614 
7.688697 -5.674579 -4.475155 
-7.061388 -4.757498 -4.030276 
-6.844773 -4.691233 -4.495442 
8.321026 -5.031732 -4.789827 
8.272782 -5.250195 -4.420502 
8.572034 -4.747798 -4.056485 
-7.432528 -4.374860 -3.801800 
-7.088666 -4.034819 -4.633289 
-8.594634 -2.734744 -4.996913 
-8.370899 -3.356499 -3.975089 
-7.520962 -3.835439 -4.187570 
8.659212 -3.135688 -3.890962 
8.568700 -3.746292 -4.653307 
-9.027129 -2.148859 -4.571962 
8.286222 -2.938180 -4.371827 
8.622340 -2.693108 -3.818217 
7.619719 -2.265382 -4.619735 
7.906447 -2.030973 -4.176952 
-9.062282 -1.297041 -4.819389 
7.963632 -1.185748 -4.263737 
7.789976 -0.920732 -4.678102 
8.118275 -1.464281 -4.053455 
-9.046407 0.048397 -4.224728 
8.763489 -0.238411 -4.508815 
8.937366 -0.378419 -4.156088 
-7.733136 0.895419 -4.855890 
-8.793725 0.374387 -4.285682 
-7.987713 1.308152 -4.183499 
-7.841663 1.094411 -4.427341 
-7.377377 1.875752 -5.098870 
-7.599868 1.727248 -4.474748 
-8.645236 2.584196 -3.779525 
-8.083915 1.760955 -4.032683 
-7.524267 2.188774 -4.780909 
-7.798308 2.364684 -4.422046 
9.121179 1.888886 -4.396521 
-8.511408 2.859350 -4.013314 
-8.487920 3.143979 -4.280345 
7.419106 3.817760 -4.355875 
8.368636 2.799400 -5.254697 
8.844626 2.520566 -4.766718 
-8.650334 4.251590 -4.452315 
-8.571353 4.677321 -3.838749 
-8.157770 5.399312 -4.152755 
-8.055060 5.434846 -4.574787 
-7.553551 5.580018 -4.937437 
6.997753 4.847531 -4.069320 
6.840588 6.154981 -3.815000 
-6.263274 6.402095 -4.462605 
-6.750395 6.143891 -4.201831 
-6.043344 6.992336 -4.146183 
4.495443 6.844774 -4.691231 
5.545742 6.504130 -4.857940 
6.482250 5.940483 -4.628407 
6.151332 6.338984 -4.685677 
-1.968735 7.414067 -4.940333 
3.801799 7.432645 -4.374725 
4.633286 7.088666 -4.034820 
-5.363101 8.199491 -4.356260 
-2.410974 7.665648 -4.681758 
-1.652219 7.580912 -4.516887 
-2.156171 7.757261 -4.372615 
-1.048908 7.877255 -4.434828 
-4.603834 8.596751 -3.882591 
-4.216767 8.667842 -4.309696 
-3.442326 8.339205 -4.903731 
-3.033575 8.391747 -4.327350 
-3.148441 8.643166 -3.919797 
-2.661271 8.443942 -3.982090 
-1.947782 8.007135 -4.096805 
-1.403014 8.070042 -4.096924 
-0.361586 8.646926 -4.498713 
-0.219530 9.052028 -4.067814 
-0.042601 9.209168 -3.874431 
2.023274 9.065941 -4.544187 
2.771949 8.454710 -5.186147 
0.924903 -9.440458 -3.209556 
-0.213392 -9.649089 -2.693956 
-3.544860 -8.577436 -3.483557 
-1.145582 -9.475789 -3.028599 
-1.566280 -9.312506 -3.406548 
-0.160621 -9.251598 -3.852195 
0.470723 -9.120466 -3.832329 
1.162770 -8.837209 -3.771686 
2.283047 -8.842647 -3.603126 
2.225549 -9.406496 -2.696788 
1.849374 -9.142906 -3.419742 
2.890682 -8.766850 -3.645650 
3.149434 -8.864873 -3.394778 
3.507846 -8.759611 -3.670923 
4.238223 -8.438640 -3.022477 
4.995986 -8.265739 -3.411960 
4.746079 -8.549943 -3.829754 
5.395624 -8.098731 -3.725839 
-4.553295 -7.144034 -4.017143 
-3.866521 -8.613170 -3.225693 
-4.499726 -7.467685 -3.707748 
5.532455 -7.592733 -2.896592 
5.804131 -7.553740 -3.308598 
-7.198514 -6.348595 -2.730510 
-6.535236 -6.919749 -3.037377 
-6.589219 -6.630929 -3.731557 
-5.744124 -7.299858 -3.380150 
-5.893610 -6.907200 -3.830629 
6.220734 -7.175202 -3.134628 
7.173391 -6.174865 -3.263089 
6.337694 -6.656166 -3.876910 
-7.124289 -5.922936 -3.503732 
7.412647 -5.909196 -3.701276 
7.513157 -5.816440 -3.238451 
-7.517101 -5.604570 -3.262674 
8.312956 -5.122457 -3.654393 
8.031120 -5.504611 -4.034473 
-8.468439 -5.185809 -2.762024 
-8.765084 -3.189036 -3.579581 
-8.384672 -3.700558 -3.535198 
8.687117 -3.925421 -3.311166 
8.765051 -3.509827 -3.524510 
8.889338 -3.175131 -3.350753 
-9.392258 -1.437835 -3.081504 
8.827828 -1.977563 -3.626038 
9.083705 -2.286648 -3.352058 
-9.273609 -0.292447 -3.805551 
9.019665 -0.800734 -3.808880 
9.445743 -2.531274 -2.109777 
9.664678 0.202223 -2.646264 
9.202438 -0.130380 -3.872510 
-8.910062 0.985912 -3.809433 
-9.176757 0.352368 -3.816612 
9.583432 0.725938 -2.857471 
-9.261749 1.592638 -3.350244 
-8.862536 2.077118 -3.605413 
9.331665 0.742894 -3.619093 
9.849878 0.977036 -2.489905 
-8.936739 2.726869 -3.411317 
-8.726646 3.231993 -3.741851 
8.512569 3.360022 -3.763450 
8.922298 3.062006 -3.353193 
-8.707595 3.813512 -3.230101 
-8.321507 5.119602 -3.665904 
7.483790 4.318935 -3.787931 
8.577764 3.810628 -3.276943 
-7.235370 6.007043 -3.759664 
-7.469713 5.870129 -3.324441 
7.353312 5.640210 -3.377645 
8.415539 5.009197 -2.890303 
-7.169159 6.215297 -3.177834 
6.617040 6.643047 -3.680533 
7.290211 5.985371 -3.229567 
-6.217542 7.180348 -3.167656 
5.981789 7.086259 -3.516896 
5.782723 7.536043 -3.163206 
-5.924437 7.417064 -3.547248 
-5.211398 8.318068 -3.941119 
-4.957766 8.360998 -3.553060 
4.186945 7.521204 -3.835599 
-3.277376 8.782664 -3.523033 
-3.826228 8.712368 -3.300955 
-2.586245 8.847431 -3.551460 
-2.273174 8.631247 -3.748335 
-1.451814 8.948182 -3.644202 
-0.653564 8.897282 -3.978690 
-0.888097 9.248548 -3.552325 
0.503047 9.297019 -3.753761 
2.988562 9.034242 -3.044870 
3.532432 8.381993 -3.706178 
3.256666 8.610033 -3.788737 
3.975085 8.370901 -3.356499 
-0.971777 9.439294 -3.192577 
1.141327 9.409351 -3.185277 
-1.620437 -10.472150 -1.991374 
-0.515121 -9.953370 -2.167726 
-0.690306 -9.819071 -2.471636 
-4.946264 -8.632352 -2.699249 
-5.322442 -8.695757 -2.231080 
-4.736370 -8.899021 -2.398867 
-2.968268 -9.079239 -2.907928 
-1.231418 -9.710094 -2.615907 
-2.133626 -9.414256 -2.578275 
3.780792 -8.710926 -3.221975 
-5.362089 -8.276051 -2.821737 
3.910886 -8.578660 -2.828223 
4.354818 -7.731993 -2.035576 
4.594508 -7.750573 -2.456232 
5.995234 -7.383478 -2.791554 
6.721246 -7.134194 -2.638593 
6.474259 -7.345723 -2.485746 
7.158558 -6.431002 -2.865695 
7.130567 -6.746146 -2.630292 
-7.288211 -6.095833 -3.115718 
7.427622 -5.879753 -2.868919 
7.399286 -6.139894 -2.444654 
-8.368373 -5.666439 -2.341427 
7.671790 -5.449927 -2.951178 
7.439895 -5.652808 -2.520130 
-8.619992 -3.773073 -3.258018 
7.615289 -4.694793 -2.338900 
8.424231 -4.145147 -2.905928 
8.597394 -3.783492 -2.428110 
-9.033482 -3.037700 -3.000949 
8.757359 -3.662412 -2.912118 
-9.312054 -2.014554 -2.972140 
-9.522781 -2.130348 -2.403653 
9.322346 -2.295378 -2.912365 
-10.412855 -1.763320 -1.964769 
-9.590342 -1.601337 -2.639631 
-9.526293 -0.437731 -3.015466 
-9.753488 -0.982464 -2.581373 
-9.676151 0.151799 -2.425508 
-9.840756 -0.669643 -2.419356 
9.662961 -0.304808 -2.344363 
9.945257 0.303248 -1.943473 
9.804676 -0.212463 -1.531003 
9.901838 0.611206 -2.323393 
-9.481985 0.907119 -3.085999 
9.658579 1.499964 -2.605809 
9.644139 1.940133 -2.417135 
-8.826657 3.294693 -3.398195 
9.414680 1.773250 -2.880677 
9.280902 2.024706 -3.129288 
-8.891505 3.454884 -2.881916 
8.967283 3.443122 -2.909848 
-8.457683 4.068156 -2.861435 
-7.614990 5.586297 -2.987495 
8.835503 4.690811 -2.552116 
-7.445521 5.868721 -2.752846 
-7.405657 6.046204 -2.464533 
8.184055 5.579512 -2.709690 
8.727845 5.184436 -2.364609 
-7.250518 6.416969 -2.694649 
-6.751242 6.930030 -2.855068 
7.289112 6.219433 -2.889207 
7.139793 6.432158 -2.463172 
8.368722 5.714349 -2.254448 
-7.457932 6.536418 -2.280419 
-7.206719 6.758479 -2.549110 
-7.513690 7.338721 -2.075271 
-6.868880 7.191822 -2.510814 
-6.415965 7.291464 -2.572657 
-5.894617 7.413954 -2.820706 
-6.180832 7.445900 -2.196970 
-5.542950 7.695902 -3.083510 
6.658376 6.792628 -2.950035 
-4.039243 8.481633 -2.873562 
-4.659040 7.636933 -2.347502 
6.181225 7.268147 -3.007732 
-3.455463 8.875142 -2.952011 
2.039573 9.342033 -2.823851 
2.972145 9.312053 -2.014549 
3.578714 8.764914 -3.189758 
4.996913 8.594632 -2.734746 
-0.324380 9.635886 -2.504942 
0.137293 9.760598 -2.321276 
0.451049 9.663005 -2.683491 
0.960505 9.760833 -2.575801 
1.564748 9.576586 -2.667673 
2.044633 9.587004 -2.412165 
-1.496670 -10.724152 -1.443726 
-2.068722 -10.250093 -1.823296 
-2.048704 -9.682606 -2.344604 
0.074650 -9.801231 -1.860405 
-5.575954 -8.671477 -1.728638 
-4.788120 -9.027506 -1.875058 
-2.667584 -9.574079 -1.566672 
-2.747248 -9.369780 -2.017496 
3.164226 -9.433499 -1.125112 
3.432345 -8.910212 -2.840945 
3.205404 -9.148202 -2.489883 
3.679239 -8.730678 -2.251904 
-5.998791 -8.229177 -1.422045 
-5.774967 -8.323262 -2.219251 
4.018950 -8.141155 -2.002171 
4.073338 -8.077812 -1.461998 
-6.344735 -7.277777 -2.487809 
5.001753 -7.448818 -2.206857 
4.848726 -7.432342 -1.586584 
5.246042 -7.359940 -1.708537 
5.981865 -7.395609 -2.388972 
6.386038 -7.532076 -2.084870 
7.870920 -6.995944 -1.616224 
7.700082 -7.186363 -1.949325 
7.366157 -7.596411 -1.979859 
7.428728 -6.556484 -2.335712 
7.471279 -6.245649 -2.127970 
-8.844782 -5.050755 -2.251437 
7.464028 -5.743578 -1.348900 
7.356563 -5.359295 -1.709026 
7.392405 -5.060044 -1.921724 
-9.000789 -4.495061 -2.318610 
7.479007 -4.780945 -1.491131 
8.035017 -4.122987 -2.178270 
7.618613 -4.470816 -1.927914 
-9.342094 -2.821909 -2.041805 
8.930908 -3.485329 -2.480953 
-9.800191 -2.456344 -1.626566 
-9.527713 -2.885417 -1.215256 
-9.587005 -2.412166 -2.044631 
-10.401258 -2.011305 -1.721261 
-10.666765 -1.620685 -1.640967 
-10.505410 -1.392905 -1.985650 
-9.925378 -0.347255 -2.061840 
-9.975368 -0.162032 -1.416586 
10.483252 1.004942 -1.857201 
10.393446 1.716533 -2.014597 
10.460167 1.340216 -2.025625 
9.641439 2.567730 -1.639922 
9.550083 2.386717 -2.137530 
10.288032 2.046434 -1.803427 
-8.740827 3.673750 -2.436510 
9.335021 2.955951 -1.937474 
9.683768 2.627592 -1.225016 
-8.980389 3.608709 -1.611871 
-7.973499 4.126443 -2.014104 
-7.715481 4.549904 -2.362116 
-7.464510 4.891958 -2.120962 
-7.357977 5.312144 -1.805289 
-7.403264 5.678688 -1.547140 
8.741762 5.498468 -1.701239 
-7.486354 6.188725 -2.003470 
8.414947 5.869910 -1.505163 
-7.412861 7.811427 -1.439140 
-7.835702 7.145083 -1.083922 
-7.474357 7.728068 -1.117663 
-7.795275 7.461392 -1.402579 
-7.676724 7.551201 -1.659912 
-7.773748 7.123032 -1.839488 
-7.880783 6.956382 -1.512515 
-6.745500 7.776202 -1.731975 
-5.721877 7.422115 -2.512854 
-5.213349 7.349600 -1.808257 
-4.054146 8.060006 -1.744959 
-4.314629 7.731938 -1.894015 
5.855728 8.310928 -1.966009 
6.327028 7.299593 -2.481896 
-3.690463 8.720900 -2.433486 
-3.576270 8.987048 -1.701605 
2.403653 9.522782 -2.130346 
4.571967 9.027129 -2.148854 
5.582503 8.402279 -2.449068 
-2.973454 9.506750 -0.968731 
0.127101 9.934232 -1.546159 
1.151618 10.624507 -1.722360 
0.513940 9.991716 -2.132456 
1.721266 10.401247 -2.011310 
1.309544 10.526208 -1.947532 
-1.556041 -10.635434 -1.054749 
-1.983495 -10.485970 -1.552093 
-2.586684 -9.752121 -1.006375 
-2.272171 -9.975557 -0.704942 
-2.622299 -9.683444 -0.377562 
-1.911477 -10.521407 -1.147701 
-1.911751 -10.019277 -0.399427 
-1.192700 -10.598382 -1.015285 
0.973474 -9.688595 -1.041057 
-5.196651 -8.931204 -0.985200 
3.718143 -9.063006 -0.907119 
-5.725312 -8.563418 -1.000174 
4.317404 -7.941479 -1.119489 
4.661928 -7.797858 -0.944210 
5.209700 -7.545169 -1.030006 
5.681007 -7.426361 -1.443064 
5.973822 -7.769556 -0.605318 
6.614374 -7.705180 -0.557699 
6.770236 -7.788440 -1.719056 
6.327357 -7.743061 -0.923172 
7.380610 -7.825131 -1.265415 
7.190320 -7.852765 -1.637683 
6.922544 -7.880133 -1.234687 
-6.642616 -7.049901 -1.185847 
-6.994056 -6.723014 -0.905052 
7.889263 -6.996115 -1.307063 
7.719729 -6.166099 -0.798256 
7.735610 -6.555533 -0.669322 
7.618628 -6.709120 -0.420737 
7.847961 -7.301702 -1.239949 
-8.311157 -5.956728 -1.361199 
-8.834270 -5.400298 -1.107921 
-8.614598 -5.529333 -0.453424 
7.856813 -5.733043 -0.509710 
-9.111079 -4.628839 -1.319692 
7.563428 -5.054986 -1.037961 
7.947526 -4.651191 -0.801155 
-9.347507 -3.469848 -1.081112 
7.871328 -4.340387 -1.177754 
9.000504 -3.598359 -1.564721 
8.067735 -4.062016 -1.554374 
8.923701 -3.839789 -0.887974 
8.938877 -4.157194 -0.354882 
-9.760834 -2.575799 -0.960480 
9.122899 -3.831078 -0.466600 
9.241053 -3.144208 -2.293844 
9.439328 -3.223435 -0.857521 
-10.526223 -1.947513 -1.309530 
-10.624516 -1.722322 -1.151593 
-10.618292 -1.424331 -0.983971 
-10.714701 -1.295154 -1.516218 
-10.511415 -0.968887 -1.773554 
-10.616235 -1.009721 -1.268381 
9.689237 -1.037623 -0.971238 
-10.073934 -0.272535 -0.823197 
-9.688034 0.903155 -1.126973 
10.696705 1.465853 -1.650763 
10.678303 1.516339 -1.128562 
10.634141 1.031917 -1.438536 
10.593906 1.174992 -1.000240 
10.602522 1.811138 -1.208243 
10.511519 1.972675 -1.502263 
-9.283125 3.245016 -1.772379 
-9.013155 3.779607 -0.889132 
9.435891 3.197844 -0.848865 
9.939082 2.334984 -0.731320 
9.722516 2.497787 -0.253146 
9.683011 2.680081 -0.714496 
-8.858800 4.064058 -0.582992 
-7.699170 4.364187 -1.801867 
-8.037129 4.105367 -1.463082 
-7.413701 4.965240 -1.522913 
9.052225 4.627634 -2.002300 
-8.107193 4.217496 -1.082452 
-7.899999 4.711575 -0.799383 
-7.668379 4.589302 -1.194285 
-7.562473 5.360351 -0.990672 
9.020053 4.978637 -1.122973 
8.730328 5.529261 -0.903328 
-7.704124 6.167943 -0.881813 
-7.584029 6.795949 -0.416235 
6.862662 6.823850 -0.985599 
7.612022 6.408860 -0.318743 
-7.649576 7.480291 -0.977153 
-6.387914 7.733067 -0.583849 
-5.684092 7.439874 -1.383287 
-6.250032 7.708315 -0.997766 
-5.059475 7.530675 -1.112912 
-4.731960 7.475996 -1.751975 
6.565949 7.254423 -0.765963 
-7.073225 7.887858 -1.200452 
-5.288434 8.154938 -0.333925 
-4.242072 7.989582 -1.159985 
-4.603222 7.638908 -1.266744 
5.928061 8.355792 -1.293500 
-4.753133 7.879463 -0.801017 
-3.776468 9.093210 -0.719481 
-3.299514 9.339391 -1.341062 
3.081512 9.392257 -1.437828 
4.819396 9.062280 -1.297055 
4.984029 8.976350 -0.717109 
5.434215 8.809107 -1.466728 
-2.211585 9.670043 -0.351514 
-0.859362 9.704681 -1.041676 
0.250591 10.068298 -0.977045 
0.983996 10.618302 -1.424411 
2.581380 9.753480 -0.982498 
3.015555 9.526257 -0.437818 
1.268486 10.616267 -1.009748 
1.640978 10.666753 -1.620713 
1.516250 10.714705 -1.295209 
1.773628 10.511393 -0.968911 
1.964772 10.412846 -1.763329 
2.639628 9.590341 -1.601344 
1.985662 10.505398 -1.392935 
-2.197283 -9.731288 0.053096 
2.444545 -9.629636 -0.435511 
1.766550 -9.792336 -0.152063 
-5.477466 -8.443000 -0.094062 
-4.331887 -8.977124 0.103567 
-3.255379 -9.400330 -1.013526 
-3.835419 -9.245015 -0.046817 
2.673718 -9.657965 0.247644 
4.056369 -8.750499 -0.701743 
4.315632 -8.897700 -0.252903 
-6.283467 -7.767525 -0.549313 
-6.080433 -7.963731 -0.097598 
5.526288 -8.126717 -0.250625 
5.976922 -7.986066 -0.076894 
-6.538190 -7.508682 -0.153955 
-6.365136 -7.728760 0.156403 
6.356888 -7.670899 0.409703 
6.303740 -7.764341 -0.293479 
7.581290 -7.595921 -1.010237 
6.935809 -7.399823 -0.262790 
-7.576394 -6.436607 -0.238470 
7.350878 -6.939248 -0.218973 
7.799800 -6.177774 -0.424169 
7.794907 -6.246417 -0.017263 
8.043544 -5.829297 -0.159216 
-9.005844 -4.914675 -0.736098 
8.734511 -4.587384 -0.215951 
8.769898 -5.235922 0.391118 
-8.993320 -4.315300 0.072962 
-9.240184 -3.879286 -0.210716 
-9.663449 -2.682954 -0.451611 
9.251642 -3.852066 0.160667 
-9.991658 -2.132463 -0.513859 
-9.761470 -2.319996 -0.138582 
-10.144099 -0.596610 -0.497746 
-10.067932 -0.977148 -0.249991 
-9.992893 -0.456059 0.019721 
-9.968137 0.137910 -0.347505 
-10.001943 0.145551 0.064894 
-9.872359 0.760498 -0.286601 
-10.000644 1.318003 0.171687 
-9.997361 2.092716 0.487175 
-9.648537 2.429147 -0.323040 
9.965645 1.970148 -0.363193 
-9.139444 3.937834 -0.193938 
9.282111 3.794012 -0.349512 
-8.677933 4.600903 -0.255383 
-8.019948 5.576991 -0.347922 
9.085642 4.089491 0.134099 
-7.856174 5.954529 -0.442010 
-8.139091 5.838066 0.008433 
8.821929 5.113138 -0.351796 
-7.724212 6.423170 -0.502306 
8.011497 6.098805 -0.396737 
-6.794894 7.598306 -0.446030 
7.598531 6.558063 0.100993 
7.321860 7.030510 0.266085 
-6.415592 7.704690 -0.212972 
-6.197203 7.861178 0.167262 
-5.886708 7.807128 -0.550625 
-6.008892 7.940069 -0.150459 
6.541702 7.513276 -0.115548 
6.270787 7.783461 -0.590424 
6.102978 7.948621 -0.113259 
-5.171110 8.715888 0.204719 
-4.251081 9.004871 -0.131901 
-4.180614 8.842912 -0.440612 
4.558327 8.733784 0.235134 
3.805652 9.273580 -0.292434 
4.224794 9.046372 0.048404 
5.644911 8.597997 -0.753391 
5.312606 8.639183 -0.215294 
-2.522154 9.700265 0.123158 
-0.928303 10.006524 0.094257 
-0.018542 9.993341 -0.456565 
-0.267911 9.995096 -0.036580 
0.823913 10.074378 -0.273299 
1.416676 9.977992 -0.165888 
2.419391 9.840742 -0.669690 
1.984090 10.048233 -0.489881 
2.466680 9.676834 0.077628 
-0.327852 -9.922603 0.387426 
2.282702 -9.905573 0.525141 
2.489908 -9.849874 0.977037 
-4.467490 -8.700016 0.317918 
-3.924711 -9.011421 0.593052 
2.913203 -9.547301 0.804942 
3.617849 -9.331835 0.726872 
3.852286 -9.220144 -0.045697 
-6.028737 -7.880050 0.297519 
-5.723385 -7.875627 0.459417 
-4.614218 -7.927040 0.847033 
5.411450 -8.675880 0.408938 
5.854847 -8.416804 0.900981 
6.130599 -7.947657 0.297222 
-7.767758 -7.523623 1.368366 
-7.098173 -7.191274 0.181852 
-6.374443 -7.741645 0.688940 
-6.679414 -7.653769 0.448777 
-6.159170 -7.718935 0.830180 
-5.107993 -7.685066 0.869728 
6.573120 -7.530944 0.041660 
-7.604280 -7.475715 0.916502 
-7.733800 -6.429250 0.450945 
6.740500 -6.978127 0.885901 
7.628740 -6.418180 0.152446 
-7.789987 -6.285160 0.127114 
-7.980033 -6.093291 -0.203775 
-7.763144 -6.549198 0.736994 
-7.889087 -5.828724 0.439014 
-7.721926 -6.118405 0.768905 
-8.178488 -5.603186 0.152514 
-7.506631 -4.986488 1.184930 
-7.855340 -4.772400 0.805629 
8.951435 -5.134691 0.977071 
-8.802555 -4.227456 0.433387 
-9.207818 -3.784391 0.318203 
-7.898050 -4.428421 1.032227 
-8.020688 -4.151162 1.326576 
9.068045 -4.716942 1.808100 
-8.892731 -3.875877 0.854835 
9.953367 -2.167728 0.515118 
-9.933987 -1.546309 -0.126729 
10.598381 -1.015284 1.192704 
-10.594614 0.997528 1.601993 
9.922603 0.387425 0.327853 
-10.669201 1.177665 1.185055 
-10.527680 1.466233 0.868130 
-10.616729 1.725131 1.131422 
-10.649853 1.723134 1.514427 
-9.700915 2.562509 0.219690 
9.704217 2.296685 0.141169 
-9.291342 3.733981 0.215972 
8.171581 4.167604 1.092001 
8.954852 3.906697 0.697404 
8.821905 4.400055 0.251741 
-9.086614 4.716780 1.263249 
7.686984 4.502322 1.282581 
7.934231 4.676578 0.789903 
-8.904832 5.222930 0.881933 
-8.661700 5.425202 0.393713 
-8.254388 5.981195 1.347830 
8.052575 5.910123 0.047712 
7.906238 5.801426 0.414781 
8.252945 5.081557 0.338574 
-7.847765 6.220385 0.158292 
-7.570556 6.550078 -0.024281 
7.673994 6.656719 0.497731 
7.781752 6.058852 0.581546 
7.828402 6.197693 0.224747 
-6.886531 6.813733 0.915760 
-6.838064 7.308499 -0.014649 
-6.384492 7.629730 0.405548 
5.080074 7.467395 1.251365 
6.459702 7.661268 0.168703 
6.736982 7.667933 0.506478 
-5.800345 8.505671 1.164639 
4.586480 7.573900 1.477556 
4.856555 7.728794 0.896478 
5.645568 7.954027 0.377446 
7.181138 7.846539 1.091589 
6.104987 7.761577 0.625547 
6.089508 7.862280 0.200499 
-5.419526 8.812554 1.455880 
-5.392013 8.802364 0.761978 
-3.848799 9.260817 0.201508 
4.362190 8.005621 0.993443 
4.174084 8.815744 0.489255 
3.816599 9.176712 0.352434 
-2.853344 9.578847 0.884524 
-2.192324 9.924379 0.471685 
-2.443946 9.884038 0.875682 
-1.037205 10.189175 0.424330 
-1.722626 9.970221 0.235524 
0.002702 9.996127 0.451406 
0.357133 9.966930 0.143198 
2.150692 9.812904 -0.134408 
-1.585470 10.597357 0.990813 
1.128564 -10.678304 1.516343 
1.438540 -10.634143 1.031920 
1.650765 -10.696704 1.465854 
1.857202 -10.483250 1.004942 
-3.086865 -9.495987 0.662351 
1.000240 -10.593907 1.174994 
2.014602 -10.393441 1.716533 
2.025627 -10.460164 1.340216 
-3.693214 -8.956272 1.288150 
-3.156585 -9.323573 1.879595 
-3.573339 -8.891185 2.180661 
2.417136 -9.644139 1.940135 
2.605809 -9.658580 1.499963 
4.396642 -9.121169 1.888823 
4.940049 -9.006215 0.807448 
-4.092998 -8.144405 1.243744 
-7.700892 -7.302111 1.902051 
-7.448376 -7.771304 1.171968 
-7.552993 -7.706335 1.650777 
-7.086961 -7.821952 1.741695 
-7.145000 -7.885192 1.284231 
-6.737849 -7.823157 1.541706 
-5.174828 -7.389913 1.434119 
-5.712350 -7.406689 1.606300 
-4.564332 -7.687756 1.182008 
-4.538211 -7.563881 1.875753 
5.887942 -8.297534 1.912688 
-7.875740 -7.136178 1.178545 
-7.865516 -6.957913 1.612956 
6.905136 -6.698494 1.541328 
8.545083 -5.724467 0.801537 
8.785823 -5.439934 1.691774 
-7.906489 -4.155254 1.815823 
-7.414032 -4.940531 1.968853 
-7.754083 -4.381297 2.163088 
-9.447145 -3.080373 1.295670 
-9.255068 -3.263176 1.870816 
9.312512 -3.406531 1.566265 
9.819071 -2.471635 0.690304 
9.475792 -3.028590 1.145582 
-9.637452 -2.503226 0.317680 
9.710094 -2.615909 1.231413 
10.472152 -1.991372 1.620438 
10.724152 -1.443725 1.496671 
-9.713061 -0.986259 0.863133 
-9.967878 -0.129312 0.352635 
10.635433 -1.054748 1.556042 
10.521405 -1.147697 1.911479 
-10.064368 0.238561 0.924546 
-9.951817 0.362181 2.012937 
-10.714420 1.435886 1.598651 
9.681772 1.084221 1.022626 
-9.762235 2.575657 0.931661 
-10.456028 2.048789 1.492049 
-9.402001 3.234497 1.008258 
9.437842 3.191693 0.966763 
9.266219 3.568408 0.742184 
7.719103 4.427675 2.153904 
7.451939 4.802083 1.957162 
7.980173 4.146363 1.485747 
7.831730 4.217126 1.826751 
9.027982 3.606212 1.425002 
-9.038729 4.472018 2.175420 
7.506238 4.940415 1.214798 
7.363113 5.189401 1.802201 
-8.821753 5.286381 1.938036 
-8.616213 5.698022 1.116004 
-8.362137 5.817249 1.972732 
7.419502 5.580499 1.379152 
-7.499768 6.416018 0.800752 
7.747575 6.344973 0.909537 
7.832611 6.773525 1.556714 
-6.634102 7.127373 0.881299 
5.556108 7.375102 1.572501 
5.099193 7.377328 1.875498 
6.424471 7.759573 0.987286 
6.787530 7.841507 1.518699 
7.334580 7.593992 2.016917 
7.546690 7.663544 1.737879 
7.839783 7.123726 1.696144 
7.759371 7.524859 1.376646 
7.749642 7.245901 0.957612 
7.883201 7.141193 1.291109 
7.093599 7.850037 1.676643 
7.620505 7.633335 1.120652 
7.408393 7.820038 1.367020 
-4.805857 8.940004 2.246374 
-3.356179 9.376063 0.960466 
3.252299 9.273089 1.871610 
4.133124 8.020652 1.370468 
3.809661 8.909340 0.986821 
3.613709 8.817625 2.241850 
-2.515715 9.726363 1.627928 
-1.952150 10.503544 1.615380 
-0.243425 10.070575 0.927640 
0.846681 9.729518 0.883911 
3.086547 9.481740 0.908240 
-1.859025 10.592672 1.291777 
-1.157181 10.635785 1.134808 
-1.487686 10.721358 1.502331 
-1.057345 10.649415 1.450026 
-1.022635 -9.681769 1.084233 
-0.141169 -9.704218 2.296681 
1.208249 -10.602523 1.811137 
0.363193 -9.965644 1.970150 
1.502264 -10.511519 1.972675 
1.803431 -10.288029 2.046433 
-3.715322 -8.722376 2.915798 
-3.413486 -8.894313 2.929281 
1.639924 -9.641439 2.567730 
2.137528 -9.550084 2.386718 
2.917862 -9.376879 1.830592 
-4.139341 -7.935873 1.720945 
5.525578 -8.766593 1.274932 
-7.396795 -7.596826 1.960879 
-6.684297 -7.404504 2.370353 
-6.245815 -7.482454 2.102024 
-6.041843 -7.392875 2.566237 
-4.872769 -7.540464 2.331727 
-5.018246 -7.397519 1.918607 
-5.631668 -7.491418 2.711966 
-4.220057 -7.910685 2.136544 
5.493442 -8.564203 2.292163 
-7.460831 -6.579104 2.275094 
-6.961121 -7.068506 2.549185 
-7.194406 -6.691169 2.586693 
-7.448410 -5.711107 1.342667 
-7.438874 -6.146323 2.178202 
8.338962 -5.902427 1.692709 
8.300300 -5.736862 2.327323 
-7.360975 -5.338476 1.688732 
8.563943 -5.309898 2.531752 
8.906187 -4.678023 2.417086 
-8.946626 -3.617360 1.616505 
-8.774505 -3.655817 2.430657 
-9.162932 -2.806606 2.972449 
9.414260 -2.578267 2.133630 
-9.439577 -2.090740 2.609049 
9.682604 -2.344604 2.048706 
10.250093 -1.823295 2.068724 
10.485968 -1.552091 1.983496 
9.752121 -1.006377 2.586683 
9.975562 -0.704940 2.272164 
-9.935677 0.126172 1.511345 
9.731286 0.053097 2.197296 
-9.933776 0.724489 2.357424 
-10.475818 1.367959 2.037125 
-10.418255 1.815591 1.927072 
-9.569874 2.676454 1.536881 
-9.692782 2.298738 2.076033 
-9.434557 2.628152 2.022791 
-9.291107 3.129637 1.965969 
9.264845 3.060633 2.328677 
8.888122 3.341884 3.155902 
8.685714 3.709208 2.267318 
-8.764062 4.782714 2.620009 
7.701071 4.699918 2.480115 
-8.451126 5.530277 2.426910 
7.407966 6.055839 2.401943 
7.498143 6.333506 2.142546 
-6.366349 7.220072 2.583039 
4.782156 7.523848 2.189213 
5.659741 7.443992 2.570066 
6.102429 7.393361 2.520675 
6.292782 7.490853 2.126017 
7.707617 7.342753 1.864903 
6.881540 7.218397 2.484168 
7.184889 6.796543 2.544843 
-6.025132 8.124697 1.706309 
-5.622081 8.578223 1.960319 
-5.730222 8.274119 2.392901 
4.441918 7.784914 2.362477 
4.245013 7.799236 1.821891 
-4.618075 9.092591 1.670696 
-2.759255 9.474910 1.741242 
-3.002772 9.311775 2.011299 
-2.282633 9.537413 2.246426 
-1.906442 10.351394 1.925969 
-1.882708 9.644666 2.466298 
-0.617167 9.944519 2.262423 
-0.398244 10.037444 1.870934 
-0.011325 9.808687 1.988625 
-1.529346 10.492572 1.984514 
-0.942152 10.503209 1.742974 
-1.252918 10.556133 1.889278 
-2.543827 -9.417370 2.305443 
0.253151 -9.722516 2.497789 
0.731318 -9.939083 2.334983 
0.714498 -9.683012 2.680080 
1.225016 -9.683767 2.627593 
-3.913646 -8.488440 2.584094 
-3.155909 -8.888121 3.341883 
-3.619122 -8.759695 3.469302 
-2.836561 -8.794042 3.586321 
-0.966765 -9.437844 3.191689 
-2.328672 -9.264845 3.060636 
-1.425006 -9.027977 3.606214 
-0.742190 -9.266218 3.568408 
0.848862 -9.435888 3.197854 
1.937480 -9.335020 2.955950 
3.353195 -8.922298 3.062006 
4.766817 -8.844613 2.520532 
-4.131322 -8.518825 3.045824 
3.763450 -8.512570 3.360022 
5.254776 -8.368622 2.799363 
-6.405221 -7.165517 2.853627 
-5.198035 -8.189972 3.489621 
-5.516543 -7.697620 3.083541 
-4.514739 -7.835680 2.497555 
4.355881 -7.419100 3.817762 
5.708720 -7.372300 3.332396 
5.960896 -7.432352 3.081609 
-7.110978 -6.335108 3.056806 
-7.299925 -6.312765 2.644428 
-6.823704 -6.678786 3.023866 
6.590718 -6.702691 3.612773 
6.242522 -7.244431 2.929767 
6.450750 -7.108869 2.471825 
7.128756 -6.415393 2.620258 
-7.523323 -5.666379 2.824864 
-7.514121 -5.828842 3.334770 
-7.411989 -5.960416 2.649282 
7.266590 -6.141844 3.088433 
7.418614 -6.170495 2.768109 
7.487968 -5.632285 3.273625 
-7.700444 -5.510874 3.063888 
8.501926 -4.948070 2.854585 
-8.310752 -4.940967 3.435419 
-8.647751 -3.826488 2.787994 
-8.499557 -4.141023 3.029605 
-7.667430 -4.682274 2.414871 
8.857932 -3.281006 3.224081 
8.463566 -3.902302 3.325330 
-8.879123 -3.340908 3.214428 
8.577434 -3.483559 3.544861 
-8.818229 -2.880801 3.554285 
9.079242 -2.907926 2.968256 
9.369780 -2.017498 2.747247 
9.574082 -1.566669 2.667582 
-9.688755 -0.073977 2.412968 
-9.411926 -1.085699 3.255424 
-9.652346 0.486592 2.727120 
9.271575 0.033611 3.769373 
9.404005 -0.994765 3.250649 
9.683827 -0.378995 2.622016 
9.494223 0.664840 3.093087 
-9.749820 1.250574 2.569176 
-9.582549 1.908849 2.500519 
9.417371 2.305436 2.543834 
9.323572 1.879609 3.156580 
8.894311 2.929285 3.413488 
-8.989986 3.392523 2.884265 
-8.975548 3.000335 3.271995 
-8.736678 3.489785 3.260803 
-8.377604 3.990876 3.348347 
8.638071 3.909091 3.075953 
8.794042 3.586320 2.836569 
8.422277 4.058553 2.802098 
-8.330029 5.183986 2.887377 
-7.406152 5.591814 3.359636 
7.473193 5.690381 2.696121 
7.378746 5.991890 2.874136 
-7.411091 6.229449 2.650488 
-6.994454 6.465873 3.001681 
-7.264288 6.071851 3.172507 
7.306864 6.459129 2.531850 
6.824757 6.801512 2.901454 
-6.059323 7.544364 2.825198 
5.428404 7.709136 3.000149 
6.487179 7.272684 2.589145 
6.299601 7.088364 3.182110 
-5.618069 7.578002 3.211677 
-5.262612 8.265150 2.892966 
5.911964 7.430660 3.308311 
-5.065886 8.669094 2.584727 
-4.033021 8.498352 3.236264 
-3.649836 8.522885 3.444048 
-3.669613 8.878422 2.965763 
-1.870738 9.379614 2.865864 
2.234774 9.417095 2.603039 
1.205542 9.427681 3.139228 
0.825032 9.262212 3.553211 
2.431787 8.964007 3.455449 
3.393193 8.903645 2.969052 
3.178531 8.846301 3.399830 
4.193039 8.436361 2.975414 
3.915870 8.488239 2.588259 
3.790412 8.691300 3.117628 
-1.310164 9.693539 2.613736 
-0.252865 9.668037 2.651415 
-0.813107 9.791100 2.527690 
0.382188 9.634925 2.466459 
-4.665412 -8.543800 3.683560 
-2.267313 -8.685713 3.709210 
-0.697402 -8.954846 3.906703 
-0.251739 -8.821904 4.400061 
2.909856 -8.967279 3.443121 
-5.352177 -8.202886 4.130112 
-4.988042 -8.458678 4.123694 
-1.826752 -7.831730 4.217126 
-2.802096 -8.422274 4.058554 
-1.485742 -7.980176 4.146363 
3.276944 -8.577760 3.810630 
-5.866281 -7.468713 3.171009 
-5.475344 -8.028252 4.494065 
-5.890074 -7.368224 4.083735 
-2.153901 -7.719101 4.427677 
-1.957161 -7.451938 4.802084 
3.787935 -7.483784 4.318939 
4.945623 -6.987301 4.050788 
-6.130655 -7.080344 3.678538 
4.446588 -6.975289 4.394247 
6.055586 -6.989600 3.633059 
-7.944828 -5.568134 4.343204 
-8.300898 -5.233665 3.944418 
-7.171737 -6.083581 3.570819 
6.541012 -5.795411 4.582115 
7.028465 -5.933475 3.637879 
-8.573175 -4.698244 3.867079 
-8.570065 -4.726771 4.278357 
6.952801 -4.735148 4.215262 
7.321000 -4.527743 3.825468 
7.593961 -4.018893 3.920979 
-8.734618 -3.757260 3.403515 
8.613172 -3.225691 3.866521 
-8.660055 -2.609244 3.755635 
-7.795656 -2.440661 4.500593 
-8.897403 -2.051748 3.581284 
-7.745331 -1.933367 4.312486 
-9.091952 -1.087718 3.662461 
-7.989275 -1.414407 4.137111 
-7.923732 -0.863423 4.575554 
-7.608846 -1.535304 4.527492 
-9.001894 -0.555810 3.950761 
9.118069 0.048643 4.083416 
8.811015 0.442569 4.235800 
9.011423 0.593049 3.924711 
-9.337063 1.857069 3.018326 
7.563879 1.875756 4.538214 
8.144402 1.243746 4.092998 
8.891186 2.180659 3.573338 
8.956272 1.288151 3.693214 
7.935877 1.720946 4.139339 
7.910684 2.136545 4.220058 
-8.646590 2.829239 4.726547 
-8.533028 3.348841 3.745638 
7.835681 2.497554 4.514737 
8.488439 2.584097 3.913648 
8.722375 2.915801 3.715324 
8.518824 3.045819 4.131320 
8.759696 3.469297 3.619119 
-7.428300 4.448318 3.762854 
8.717664 3.830386 3.547494 
-6.893130 6.063147 3.764656 
-7.010039 4.531223 4.230503 
8.213121 5.355973 4.136245 
7.670351 5.603783 3.117003 
8.292643 5.105686 3.596229 
7.144560 6.085503 3.629883 
-6.683153 6.548337 3.716489 
-6.143532 7.165437 3.278906 
-5.723207 7.164140 3.534118 
7.120447 6.378159 2.979574 
7.360022 5.966505 3.328965 
-4.574048 7.336262 3.783651 
-3.986366 7.512818 4.032616 
1.734840 7.577925 4.518443 
5.311318 8.173239 3.693690 
-3.042210 8.965618 3.241546 
-3.104718 8.748303 3.752219 
-0.104213 9.337802 3.602171 
1.303439 7.947036 4.212530 
0.073047 9.176463 3.925912 
0.541460 8.889330 4.062546 
1.078544 8.924874 3.770603 
1.556210 8.169080 4.010296 
2.205889 8.697194 3.688381 
2.135067 7.834046 4.272128 
2.815862 8.540066 3.945431 
3.119485 8.722449 3.707939 
3.648445 8.745039 3.586658 
4.790702 8.358094 3.365730 
4.685626 8.578967 3.930479 
-4.595092 -8.603588 4.367483 
-3.547492 -8.717664 3.830385 
-3.992461 -8.623861 4.572502 
-0.134097 -9.085641 4.089495 
0.349513 -9.282110 3.794018 
0.351796 -8.821925 5.113144 
2.552116 -8.835502 4.690815 
2.002303 -9.052225 4.627631 
-5.003230 -8.337504 4.794525 
-4.484286 -8.457891 4.948037 
-3.596234 -8.292646 5.105685 
-3.075957 -8.638071 3.909092 
-1.092000 -8.171583 4.167603 
-0.789905 -7.934231 4.676573 
-3.117004 -7.670352 5.603784 
-2.480115 -7.701073 4.699917 
-1.802200 -7.363113 5.189397 
-1.282577 -7.686984 4.502323 
-6.067522 -6.570895 4.609605 
-6.784212 -6.110077 4.228946 
-7.669645 -5.579352 4.805767 
-7.263213 -5.516051 5.226206 
-6.605403 -5.858727 4.968244 
-6.350530 -6.305673 4.470696 
5.987684 -6.473274 4.610068 
6.497022 -6.312256 4.258398 
-8.420176 -4.875326 4.750892 
-8.189083 -5.205488 4.780228 
-8.640626 -4.309368 4.423755 
7.144038 -4.017142 4.553291 
-8.700517 -3.323827 3.865639 
-8.460522 -2.974254 4.146752 
-8.417466 -3.572418 4.884656 
7.467689 -3.707745 4.499725 
8.632358 -2.699247 4.946256 
8.899022 -2.398870 4.736361 
-7.537573 -2.199647 4.760434 
-7.382538 -1.866660 5.035326 
9.027508 -1.875054 4.788114 
-7.523400 -1.282600 4.795841 
-7.595600 -0.954305 5.276896 
-8.799795 -0.257847 4.430368 
-9.091915 0.036872 4.191191 
8.711355 0.185463 4.649307 
-9.262289 0.184520 3.824104 
7.927043 0.847034 4.614214 
7.685067 0.869727 5.107994 
-9.458013 1.031604 3.063360 
-8.965411 2.238065 4.704294 
-9.130030 1.609699 4.408242 
-8.676021 2.323587 5.298590 
7.540465 2.331730 4.872768 
7.397520 1.918605 5.018243 
-7.541153 3.791141 4.223441 
7.491421 2.711976 5.631668 
-7.165331 3.889083 4.758534 
8.543798 3.683570 4.665423 
8.458677 4.123718 4.988047 
8.337489 4.794584 5.003215 
8.457883 4.948058 4.484275 
8.603584 4.367502 4.595098 
8.623857 4.572514 3.992463 
-6.484134 5.813821 4.737570 
7.729435 5.610897 4.676527 
8.076933 5.335190 4.737923 
-6.365711 6.496145 4.213461 
-6.046916 6.498092 4.492994 
-4.619962 7.007689 4.187806 
-4.454472 6.858638 4.707381 
5.976219 6.621775 4.725904 
6.726963 6.116688 4.308294 
6.284060 6.339929 4.526190 
-3.642065 7.497577 4.609439 
1.136512 7.516740 5.052686 
1.567283 7.382577 5.162369 
2.417689 7.613714 4.786713 
2.033002 7.407166 5.047569 
6.063341 7.051859 3.989002 
-3.370460 8.396143 3.907560 
0.870794 7.754285 4.884062 
3.064203 8.476553 4.218802 
4.260107 8.461375 4.971313 
5.149392 8.121863 4.986704 
5.068907 8.412096 4.018588 
5.446028 8.097663 4.361968 
-2.773045 8.480717 5.138524 
-2.017298 9.075451 4.442344 
-2.499522 8.862149 4.706028 
-1.400845 9.071545 4.753361 
-0.763560 9.445235 3.164128 
0.313579 8.562793 4.669620 
0.147038 8.962528 4.284639 
0.993530 7.850328 4.518205 
3.662656 8.417357 4.953908 
4.815689 8.462898 4.710487 
4.326813 8.646017 4.459039 
1.122977 -9.020049 4.978650 
0.903331 -8.730330 5.529260 
1.701241 -8.741763 5.498468 
-4.737977 -8.076966 5.335136 
-4.136274 -8.213125 5.355973 
-0.414779 -7.906239 5.801427 
-0.338570 -8.252949 5.081559 
-0.047713 -8.052575 5.910123 
2.709688 -8.184050 5.579519 
2.254451 -8.368722 5.714348 
2.364616 -8.727844 5.184433 
-5.223668 -7.892066 5.171550 
-4.676670 -7.729437 5.610861 
-2.874141 -7.378746 5.991890 
-2.401944 -7.407965 6.055837 
-2.696123 -7.473195 5.690380 
-1.214793 -7.506241 4.940413 
-1.379148 -7.419502 5.580493 
2.890305 -8.415535 5.009200 
3.377648 -7.353311 5.640206 
-5.617490 -7.516110 4.897002 
-5.822391 -6.384800 5.124221 
-5.340071 -7.184114 5.453000 
-4.308616 -6.727144 6.116489 
4.069316 -6.997756 4.847528 
3.815007 -6.840586 6.154976 
-7.365177 -5.189438 5.507678 
-6.051714 -6.019332 5.091704 
-6.144169 -5.221781 5.823194 
-5.574712 -5.682420 5.680209 
-4.966582 -6.334498 5.968026 
5.823163 -6.017087 5.637899 
-8.066192 -4.795048 5.340082 
-7.808473 -5.218229 5.228031 
-6.513888 -4.715718 6.029657 
-7.827694 -4.389900 5.630854 
-8.550837 -4.046810 4.805259 
-8.208514 -3.848502 5.307728 
-8.370568 -4.475493 5.106071 
-7.183172 -3.647517 6.056550 
6.831042 -4.399925 4.882536 
-7.381303 -3.175488 5.945779 
-7.672997 -3.030102 5.522978 
7.299858 -3.380152 5.744119 
8.276056 -2.821733 5.362089 
8.695757 -2.231076 5.322443 
8.323265 -2.219243 5.774968 
-7.369364 -1.608955 5.282647 
8.932144 -0.987795 5.195204 
8.671472 -1.728639 5.575958 
-7.433307 -1.343203 5.605105 
-7.865033 -0.425904 5.937957 
8.563416 -1.000169 5.725313 
8.798704 -0.625956 5.314055 
-8.660183 0.269119 5.314592 
-8.140902 -0.209942 5.563773 
8.443004 -0.094068 5.477466 
-8.861788 0.659697 5.208776 
-8.661896 0.897727 5.614788 
7.875627 0.459418 5.723382 
-8.866333 1.489255 5.326892 
-8.559388 1.593899 5.728779 
7.389912 1.434122 5.174832 
7.406690 1.606295 5.712354 
7.392874 2.566248 6.041843 
-7.445234 3.213009 5.824522 
-8.330455 2.657554 5.468019 
7.697617 3.083554 5.516559 
8.189968 3.489639 5.198059 
-6.816405 4.444796 4.861812 
-6.542063 4.695786 5.638827 
7.468703 3.171063 5.866304 
7.368246 4.084214 5.889984 
8.202866 4.130190 5.352200 
8.028210 4.494200 5.475347 
5.868680 5.160910 6.165312 
7.515826 4.897422 5.617437 
-6.111639 5.581023 5.744697 
6.214932 5.099159 5.905019 
5.599402 5.564614 5.816840 
5.758287 5.741619 5.471426 
6.333297 5.968925 4.966059 
7.183706 5.453437 5.339738 
-5.821745 6.146524 5.439357 
-5.384030 6.551124 4.887583 
-4.026560 7.095781 4.651983 
-4.490472 6.585001 5.799637 
5.893981 6.242012 5.094901 
5.114440 6.176955 5.903817 
-3.989419 6.681741 6.288685 
-3.246176 7.535440 5.613909 
-3.516594 7.142110 5.858279 
1.565938 7.364130 5.460864 
2.601203 7.487406 5.539163 
3.505088 7.489592 5.864385 
3.877282 7.113845 6.051509 
4.714812 6.794149 5.927235 
5.547689 7.666313 4.904730 
5.126745 7.564284 5.471970 
5.474153 7.179064 5.305359 
0.148555 8.206482 5.567103 
3.007730 7.607007 5.615418 
3.985984 8.093663 5.467981 
4.659408 8.193296 5.270096 
4.694725 7.714419 5.602443 
-2.384635 8.306264 5.707284 
-2.156407 8.822458 5.167080 
-1.150012 8.817692 5.411055 
-0.741681 8.978997 4.979407 
-0.444345 8.629383 5.499860 
-0.224747 -7.828402 6.197691 
0.396747 -8.011501 6.098803 
1.505167 -8.414952 5.869906 
-3.328981 -7.360028 5.966500 
-2.531854 -7.306860 6.459134 
-1.556716 -7.832611 6.773527 
-2.142553 -7.498142 6.333510 
-0.581546 -7.781752 6.058854 
-0.497733 -7.673994 6.656718 
-0.909537 -7.747575 6.344975 
0.318739 -7.612023 6.408859 
3.229567 -7.290211 5.985370 
-3.629918 -7.144559 6.085496 
-2.979559 -7.120444 6.378180 
2.463175 -7.139793 6.432157 
3.680540 -6.617040 6.643044 
2.950041 -6.658360 6.792642 
2.889204 -7.289115 6.219432 
4.628417 -6.482250 5.940470 
4.685681 -6.151334 6.338980 
-5.097810 -5.896970 6.239413 
-4.530919 -6.034162 6.736695 
3.516898 -5.981789 7.086258 
-6.053677 -4.995130 6.148251 
-5.801441 -5.153127 6.375003 
4.857935 -5.545744 6.504131 
5.540547 -5.705967 6.170236 
6.152701 -5.318477 5.920448 
-6.778956 -4.166625 6.137145 
-6.286638 -4.385876 6.426252 
4.034815 -4.633286 7.088671 
4.691241 -4.495434 6.844773 
-7.432788 -2.718944 5.859429 
-7.150885 -2.935463 6.371546 
6.000549 -3.477503 7.112800 
6.608284 -3.758509 6.597607 
6.907204 -3.830622 5.893613 
6.459288 -4.543135 6.090837 
7.340740 -3.087315 6.068183 
6.911653 -3.035737 6.543232 
-7.247993 -2.565489 6.624678 
-7.404002 -2.373124 6.396626 
7.277775 -2.487813 6.344735 
-7.731053 -0.794396 6.211420 
-7.411106 -2.137465 6.011425 
-7.790130 -1.705530 6.760198 
8.229176 -1.422042 5.998791 
-7.884829 -1.449816 7.042875 
-7.714029 -0.464712 6.457096 
6.731701 -0.908804 6.984124 
7.049905 -1.185839 6.642614 
-7.899266 -0.067711 6.097798 
-7.636741 -0.505938 6.773654 
7.508647 -0.154053 6.538205 
7.963731 -0.097599 6.080434 
7.728759 0.156405 6.365137 
7.767525 -0.549313 6.283467 
-7.758696 0.133969 6.294692 
-7.546825 0.592759 6.415418 
-6.919346 1.303706 6.719746 
7.718935 0.830180 6.159173 
7.741645 0.688942 6.374443 
7.653770 0.448780 6.679416 
7.880050 0.297518 6.028737 
-8.149938 1.668761 6.016181 
7.885192 1.284234 7.145006 
7.823158 1.541708 6.737850 
-8.187820 2.339075 5.819578 
7.482453 2.102029 6.245816 
7.404488 2.370377 6.684277 
-7.294566 2.938781 6.190912 
-7.036412 3.547597 6.059489 
-6.599635 3.657649 6.670850 
-7.226190 2.598909 6.353747 
7.165340 2.853671 6.405540 
6.679756 3.021531 6.824878 
-6.398064 4.544810 6.193524 
-5.998266 4.528185 6.502654 
6.570849 4.610744 6.067014 
7.076059 3.670155 6.136167 
6.020007 4.774531 6.479326 
6.373216 4.439065 6.309835 
-5.670938 5.791675 6.019586 
-5.288187 5.118656 6.506879 
-4.432472 4.600128 6.896231 
4.478312 6.063655 6.717576 
5.062958 5.919672 6.244562 
-4.589613 6.390343 6.163304 
-4.478240 6.035391 6.511743 
-3.656792 6.529162 6.734993 
3.195404 7.031746 6.348569 
4.418986 6.295495 6.395161 
-3.092824 7.289905 6.105711 
-2.679139 7.216441 6.348490 
0.849843 7.712661 6.175985 
0.177018 7.622939 6.523452 
0.662123 7.725090 6.748594 
2.230943 7.454564 6.280479 
3.129774 7.340067 6.021417 
2.595662 7.408937 5.942151 
2.762886 7.269802 6.280583 
4.417771 6.562289 6.179652 
