0.025502 0.046373 -0.016348 
0.024326 0.051701 0.040642 
0.027719 0.064332 0.043636 
0.023285 0.067180 0.045637 
0.027216 0.060581 0.043855 
0.024549 0.062063 0.045213 
0.024487 0.056510 0.043872 
0.025282 0.042312 0.037683 
0.022181 0.048253 0.040325 
0.024418 0.073994 0.047800 
0.027781 0.079631 0.045581 
0.028301 0.089841 0.044222 
0.023838 0.099483 -0.020444 
0.028843 0.102612 -0.016078 
0.028090 0.099022 -0.017589 
0.035809 0.089948 -0.016312 
0.040738 0.039133 0.005583 
0.042980 0.040250 0.016766 
0.039555 0.058046 -0.004867 
0.044472 0.079866 0.024843 
0.044792 0.071155 0.023082 
0.042196 0.049810 0.032786 
0.040066 0.055802 0.031727 
0.040737 0.060044 0.029964 
0.043077 0.065462 0.027014 
0.042393 0.069166 0.027782 
0.043371 0.076131 0.026818 
0.044996 0.086840 0.022138 
0.041472 0.046532 0.031120 
0.043335 0.043956 -0.000408 
0.046561 0.070933 0.004227 
0.046612 0.075756 0.013993 
0.045017 0.068534 0.024571 
0.045688 0.060275 0.031308 
0.046236 0.049880 0.030654 
0.045351 0.043069 0.022557 
0.048127 0.042612 0.012104 
0.042665 0.050846 -0.006756 
0.042283 0.054129 -0.006731 
0.047233 0.072461 0.017690 
0.046654 0.071322 0.020257 
0.046292 0.054568 0.032374 
0.045897 0.044997 0.025722 
0.045044 0.047505 -0.004367 
0.047810 0.044326 0.002413 
0.049194 0.049668 0.027826 
0.051830 0.062416 0.029450 
0.053908 0.073531 0.011102 
0.051684 0.072309 0.006877 
0.051873 0.060921 -0.003575 
0.050146 0.055766 -0.004673 
0.048359 0.043483 0.019348 
0.051637 0.057611 0.029664 
0.053141 0.073578 0.017298 
0.052359 0.067368 0.000391 
0.052688 0.046835 0.019878 
0.051007 0.046853 0.022940 
0.055138 0.051486 0.002657 
0.056920 0.052240 0.005740 
0.058816 0.054586 0.017414 
0.058143 0.052227 0.012304 
0.059118 0.058299 0.021170 
0.059991 0.069605 0.014560 
0.060173 0.065246 0.019198 
0.057755 0.062183 0.024356 
0.057229 0.072216 0.016472 
0.059691 0.069466 0.010217 
0.057408 0.066501 0.002398 
0.058160 0.069107 0.005535 
0.056640 0.072196 0.009215 
0.055036 0.072039 0.020569 
0.056797 0.065441 0.025117 
0.054597 0.062055 0.027990 
0.053689 0.056054 0.028112 
0.053778 0.053499 0.026484 
0.056537 0.050490 0.018966 
0.053772 0.048733 0.003905 
0.056217 0.050049 0.007712 
0.055535 0.048638 0.013811 
0.057127 0.053674 0.022387 
0.055016 0.069241 0.024238 
0.052817 0.066348 0.027280 
0.054483 0.063696 -0.000305 
0.057867 0.059539 0.002343 
0.054383 0.059944 -0.002265 
0.052197 0.049813 0.000209 
0.054955 0.070272 0.003870 
0.059154 0.067859 0.020319 
0.061162 0.062779 0.013449 
0.060696 0.059563 0.010118 
0.060142 0.062613 0.006910 
0.051798 0.045209 0.012323 
0.049227 0.043682 0.007951 
0.052374 0.053857 -0.002549 
0.049405 0.058339 -0.005040 
0.049491 0.063901 -0.002368 
0.048301 0.072836 0.009056 
0.047783 0.073334 0.014785 
0.051435 0.072176 0.021346 
0.049774 0.069189 0.025417 
0.048627 0.065014 0.028800 
0.048735 0.060583 0.030926 
0.043697 0.065755 -0.000242 
0.044234 0.063483 -0.001885 
0.046519 0.059685 -0.004710 
0.046597 0.048778 -0.004269 
0.046954 0.073468 0.008060 
0.045953 0.074393 0.019739 
0.044811 0.068286 0.001698 
0.041125 0.040482 0.001912 
0.044602 0.041017 0.007018 
0.041950 0.071105 -0.006677 
0.041584 0.079428 -0.006899 
0.039563 0.071003 -0.010814 
0.041741 0.062559 -0.002932 
0.042380 0.067819 -0.002917 
0.042899 0.092543 -0.003286 
0.041881 0.102571 0.002420 
0.041092 0.101943 -0.000916 
0.041904 0.098856 0.023510 
0.039261 0.099155 0.029048 
0.039902 0.106175 0.002836 
0.035434 0.111173 0.025845 
0.036552 0.111635 0.019514 
0.035030 0.088226 0.039988 
0.035486 0.058743 0.036440 
0.036451 0.057133 0.033528 
0.032855 0.045115 0.029949 
0.034992 0.039275 -0.000997 
0.039391 0.060017 -0.005280 
0.036902 0.054906 -0.006148 
0.037073 0.047297 -0.006118 
0.037522 0.038566 0.002534 
0.035948 0.036446 0.012140 
0.037755 0.047423 0.031638 
0.034930 0.050656 0.031515 
0.038442 0.072946 0.034725 
0.038832 0.064353 0.034083 
0.038600 0.058193 0.031197 
0.040617 0.072323 0.031735 
0.036279 0.082886 0.037626 
0.035459 0.070242 0.038025 
0.031137 0.045424 0.031199 
0.031559 0.035077 0.012342 
0.028776 0.035456 0.018602 
0.026083 0.039990 0.031707 
0.031729 0.050214 0.034505 
0.026484 0.042973 0.035748 
0.029468 0.084420 0.043279 
0.028790 0.093508 0.043624 
0.029549 0.099779 0.040584 
0.036610 0.076420 0.037750 
0.030334 0.116194 -0.003465 
0.029702 0.117040 0.027764 
0.033522 0.116326 0.011968 
0.020819 0.038971 0.041397 
0.021589 0.037577 0.038028 
0.019375 0.038392 0.012032 
0.017700 0.038088 0.007714 
0.017649 0.035026 -0.013305 
0.015371 0.052728 0.047541 
0.011233 0.049483 0.048603 
0.014525 0.034808 0.017762 
0.013959 0.066001 0.052844 
0.017637 0.128391 0.013116 
0.013636 0.125422 0.030354 
0.011570 0.130732 0.012260 
0.010261 0.130451 0.020827 
0.007712 0.106860 0.041156 
0.002933 0.102375 0.044010 
0.008089 0.098322 0.048700 
0.007359 0.093568 0.052906 
0.010089 0.090002 0.054308 
0.006716 0.086543 0.056586 
0.005209 0.096831 0.051919 
0.006640 0.080116 0.055574 
0.007649 0.075148 0.056584 
0.006422 0.072229 0.056386 
0.004804 0.063365 0.056486 
0.002507 0.057081 0.053838 
0.004758 0.052357 0.053420 
0.006106 0.045625 0.048223 
0.002598 0.044405 0.046171 
0.000819 0.034750 0.044380 
0.007717 0.037110 0.037545 
0.006105 0.034919 0.036982 
0.006821 0.039125 0.036155 
0.006927 0.039063 0.028964 
0.003823 0.035224 0.022173 
0.005227 0.034058 0.016264 
0.004864 0.034164 0.008822 
0.006907 0.036510 0.009825 
0.006465 0.036873 0.008288 
0.009241 0.034638 0.003394 
0.007778 0.036985 0.006249 
0.004922 0.034727 0.007091 
0.004310 0.034056 0.003855 
0.007622 0.034110 0.000675 
0.006274 0.038691 -0.007698 
0.006189 0.038229 -0.011934 
0.010586 0.035052 -0.021811 
0.004771 0.037128 -0.024204 
0.004607 0.042066 -0.024000 
0.006142 0.049609 -0.028663 
0.006022 0.060315 -0.030777 
0.006611 0.064926 -0.032556 
0.010991 0.060780 -0.029655 
0.010102 0.056472 -0.030114 
0.008329 0.046079 -0.025599 
0.011655 0.036685 -0.022533 
0.006417 0.034110 -0.020822 
0.008704 0.039595 0.008843 
0.010047 0.036281 0.010276 
0.008811 0.034791 0.008938 
0.008488 0.033048 0.010730 
0.012190 0.033912 0.011687 
0.012109 0.035230 0.014217 
0.007447 0.035134 0.025034 
0.010837 0.035212 0.033801 
0.008911 0.034873 0.036478 
0.008703 0.047900 0.049418 
0.007299 0.058069 0.053290 
0.007728 0.053690 0.052325 
0.005043 0.050242 0.052292 
0.008594 0.040183 0.045320 
0.010664 0.060513 0.052395 
0.010713 0.053759 0.052090 
0.009804 0.044471 0.044871 
0.009926 0.037406 0.031010 
0.008314 0.033924 0.013088 
0.008988 0.039462 0.006795 
0.010924 0.034598 -0.010561 
0.007629 0.037590 -0.010707 
0.008292 0.034593 -0.013913 
0.012524 0.039617 -0.022810 
0.010308 0.043532 -0.024826 
0.008182 0.054553 -0.030636 
0.001859 0.035447 -0.015636 
0.008453 0.034850 -0.005492 
0.004406 0.038604 -0.004745 
0.006276 0.039669 0.035940 
0.005819 0.037385 0.036415 
0.006129 0.036852 0.035323 
0.004062 0.068988 0.055660 
0.010661 0.081597 0.054484 
0.008945 0.075006 -0.033548 
0.007726 0.079349 -0.033796 
0.004654 0.112053 -0.020286 
0.006562 0.131453 0.007436 
0.003930 0.083494 -0.034142 
0.004596 0.075484 -0.034771 
0.004316 0.047220 -0.028310 
0.000349 0.034758 0.016101 
0.003371 0.039564 0.037747 
0.003185 0.035089 0.036462 
0.000662 0.049463 0.051717 
0.001524 0.053519 0.053571 
-0.001047 0.115390 0.041047 
-0.001311 0.128365 0.028156 
0.000758 0.131539 0.016351 
0.002102 0.131682 0.008703 
0.003912 0.126026 -0.007492 
0.000715 0.116788 -0.017465 
0.001696 0.113224 -0.020027 
-0.002346 0.120523 -0.012458 
-0.000335 0.125511 -0.007410 
-0.000903 0.128517 -0.002891 
-0.000519 0.130906 0.003580 
-0.003706 0.122942 0.035440 
0.000589 0.101081 0.045233 
-0.000168 0.098785 0.051261 
0.001210 0.095105 0.054645 
0.002389 0.080325 0.056876 
0.001320 0.071347 0.056635 
-0.001320 0.068272 0.056670 
-0.000398 0.064242 0.056853 
-0.000790 0.060829 0.056139 
-0.002883 0.047331 0.049091 
-0.001135 0.051946 0.054350 
0.003527 0.036884 0.046057 
-0.001119 0.036566 0.037205 
0.002009 0.036944 0.036877 
0.000163 0.034743 0.008073 
0.002139 0.038449 -0.001471 
0.002007 0.039270 -0.006606 
-0.001211 0.034085 -0.022847 
-0.000328 0.038725 0.001212 
0.001697 0.034390 0.004933 
0.001050 0.035488 0.019187 
-0.000373 0.043365 -0.024899 
0.001734 0.049070 -0.030292 
0.000687 0.053204 -0.030475 
0.001704 0.061911 -0.033603 
0.001677 0.064735 -0.034304 
0.002493 0.057667 -0.032331 
0.002453 0.090540 -0.033572 
-0.000162 0.068992 -0.033947 
0.001081 0.073036 -0.035316 
-0.001198 0.098088 -0.027899 
0.000367 0.100058 -0.023171 
-0.000624 0.104721 -0.022241 
-0.002512 0.084995 -0.037159 
-0.000643 0.079647 -0.035883 
-0.002290 0.075747 -0.036208 
-0.002285 0.034971 -0.016549 
-0.003147 0.038252 0.016545 
-0.002730 0.070629 0.057523 
-0.001619 0.090214 0.056322 
-0.004071 0.081030 -0.037270 
-0.004899 0.066631 -0.035079 
-0.003823 0.039621 0.039701 
-0.005771 0.039723 0.039588 
-0.006008 0.051225 0.052260 
-0.006971 0.046094 0.047307 
-0.005482 0.035953 0.048535 
-0.009353 0.035660 0.038421 
-0.009537 0.047193 0.047564 
-0.008066 0.076918 0.057617 
-0.006114 0.083733 0.056941 
-0.009748 0.098820 0.050530 
-0.010701 0.104053 0.043541 
-0.008954 0.110040 0.042930 
-0.011468 0.128560 0.023707 
-0.011385 0.127246 -0.002857 
-0.007077 0.121173 -0.012504 
-0.011911 0.117094 -0.015607 
-0.011199 0.107239 -0.022375 
-0.002293 0.088575 -0.035671 
-0.006741 0.072687 -0.036589 
-0.009905 0.072423 -0.037650 
-0.009303 0.078116 -0.037800 
-0.010162 0.088013 -0.037137 
-0.012520 0.091159 -0.036668 
-0.013771 0.095887 -0.032339 
-0.012226 0.102765 -0.024028 
-0.010491 0.121280 -0.011659 
-0.010352 0.125349 -0.007233 
-0.012544 0.129721 0.013555 
-0.014836 0.126592 0.025758 
-0.007727 0.123824 0.033831 
-0.009297 0.101356 0.044264 
-0.011691 0.093929 0.055384 
-0.012699 0.085940 0.057146 
-0.012725 0.095937 0.052844 
-0.012796 0.119236 0.037112 
-0.012755 0.125008 0.030275 
-0.012790 0.129214 0.019112 
-0.012816 0.128378 0.002126 
-0.012900 0.093238 -0.035296 
-0.012304 0.097196 -0.030143 
-0.015748 0.098590 -0.024438 
-0.016366 0.103219 -0.023267 
-0.014366 0.106484 0.043108 
-0.016940 0.099310 0.044090 
-0.016703 0.096443 0.051180 
-0.015845 0.094525 0.053969 
-0.016125 0.086298 0.056884 
-0.014748 0.081275 0.056935 
-0.013585 0.071047 0.054729 
-0.012854 0.067535 0.053975 
-0.015671 0.067653 0.054465 
-0.018233 0.076735 0.055667 
-0.017836 0.081717 0.057813 
-0.016881 0.123920 0.029011 
-0.013182 0.129108 0.006265 
-0.017478 0.125858 -0.001374 
-0.014386 0.077967 -0.038452 
-0.016431 0.058857 -0.035418 
-0.015734 0.065267 -0.037747 
-0.015741 0.072155 -0.038837 
-0.014980 0.081467 -0.039453 
-0.017019 0.086655 -0.038727 
-0.017990 0.089554 -0.037385 
-0.019121 0.092943 -0.035065 
-0.019157 0.096294 -0.028538 
-0.018877 0.107291 -0.022288 
-0.018314 0.114001 -0.018331 
-0.016787 0.117353 -0.015009 
-0.016359 0.120741 -0.009662 
-0.020444 0.122336 -0.007992 
-0.019542 0.127884 0.014427 
-0.016751 0.117606 0.036444 
-0.016046 0.110436 0.041336 
-0.018298 0.104714 0.043088 
-0.020003 0.097570 0.045098 
-0.017652 0.072204 0.054872 
-0.017094 0.059926 0.051716 
-0.016571 0.053869 0.050285 
-0.015713 0.042229 0.051750 
-0.015993 0.062634 0.053056 
-0.020036 0.068037 0.052080 
-0.021688 0.073160 0.052239 
-0.020333 0.063612 0.048570 
-0.018000 0.049423 0.047003 
-0.015348 0.047891 0.048226 
-0.020305 0.045558 0.052646 
-0.019620 0.038822 0.033947 
-0.019418 0.033903 -0.027172 
-0.020712 0.035922 -0.028099 
-0.021775 0.059342 -0.033370 
-0.021028 0.063628 -0.035564 
-0.021442 0.081552 -0.038991 
-0.019560 0.110896 -0.019907 
-0.018950 0.126533 0.021678 
-0.019260 0.116569 0.036669 
-0.021901 0.113230 0.038344 
-0.022762 0.106617 0.041923 
-0.019574 0.094926 0.051378 
-0.017335 0.092257 0.055018 
-0.023062 0.085388 0.055236 
-0.020099 0.102247 0.043645 
-0.020994 0.121775 0.030235 
-0.020224 0.117353 -0.013609 
-0.023252 0.106780 -0.022191 
-0.022349 0.094998 -0.029944 
-0.020827 0.041442 -0.028791 
-0.023606 0.047648 -0.027181 
-0.022365 0.053849 -0.029893 
-0.026577 0.048857 -0.025434 
-0.026374 0.035961 -0.029345 
-0.029084 0.033850 -0.029795 
-0.031809 0.034393 -0.020470 
-0.030181 0.038573 -0.017175 
-0.026117 0.037612 0.014963 
-0.026973 0.037695 0.019120 
-0.027058 0.037634 0.040682 
-0.025540 0.034879 0.040916 
-0.027494 0.035231 0.052306 
-0.029258 0.042539 0.051454 
-0.027037 0.049990 0.045685 
-0.024709 0.049505 0.047643 
-0.025124 0.050464 0.044640 
-0.026221 0.064948 0.039865 
-0.028257 0.063153 0.037445 
-0.031085 0.070755 0.039927 
-0.030903 0.078015 0.041049 
-0.032097 0.084731 0.041848 
-0.036334 0.126566 0.019075 
-0.032637 0.126848 0.012619 
-0.034711 0.118988 -0.011343 
-0.034358 0.112124 -0.017861 
-0.033829 0.084486 -0.025120 
-0.032077 0.088632 -0.025036 
-0.037782 0.089504 -0.023891 
-0.033990 0.101789 -0.022123 
-0.034261 0.105667 -0.020565 
-0.036917 0.118118 -0.012867 
-0.032922 0.124338 -0.003078 
-0.036742 0.125124 -0.006042 
-0.032723 0.126327 0.004367 
-0.036998 0.128120 0.009196 
-0.034525 0.123054 0.025477 
-0.037221 0.121303 0.028956 
-0.032292 0.102660 0.041790 
-0.034169 0.086614 0.042643 
-0.036190 0.081526 0.043299 
-0.036219 0.090445 0.043660 
-0.038356 0.094047 0.043410 
-0.036363 0.104744 0.039361 
-0.042076 0.099512 -0.021402 
-0.034402 0.074670 -0.021979 
-0.036247 0.084934 -0.022463 
-0.034736 0.079190 -0.023441 
-0.033708 0.076383 -0.026942 
-0.032033 0.078780 -0.031424 
-0.032614 0.083360 -0.028811 
-0.031335 0.109502 -0.018540 
-0.030044 0.123071 -0.004414 
-0.030053 0.124564 0.001127 
-0.029564 0.125700 0.012366 
-0.030717 0.121617 0.025379 
-0.032849 0.117323 0.031604 
-0.036902 0.110335 0.036511 
-0.031737 0.107030 0.039492 
-0.032309 0.099719 0.043530 
-0.034057 0.090265 0.044436 
-0.030216 0.086815 0.043665 
-0.029430 0.089705 0.044090 
-0.031147 0.093694 0.044432 
-0.030448 0.096554 0.044972 
-0.028720 0.102008 0.042606 
-0.027794 0.117610 0.031468 
-0.028783 0.122708 0.022047 
-0.028481 0.125238 0.004527 
-0.032352 0.121436 -0.007810 
-0.031405 0.113718 -0.017121 
-0.030427 0.097991 -0.023305 
-0.027350 0.094453 -0.025126 
-0.029824 0.091091 -0.025992 
-0.029205 0.088663 -0.031614 
-0.031157 0.083253 -0.031134 
-0.029963 0.068599 -0.028772 
-0.030895 0.059390 -0.018528 
-0.030100 0.065479 -0.027328 
-0.029390 0.070846 -0.031647 
-0.031466 0.076911 -0.032450 
-0.028608 0.085478 -0.034815 
-0.028244 0.104198 -0.023104 
-0.031232 0.106429 -0.020978 
-0.029095 0.125030 0.017871 
-0.030947 0.118833 0.029685 
-0.030989 0.115160 0.033616 
-0.027742 0.109267 0.038636 
-0.027212 0.105483 0.041024 
-0.029190 0.082921 0.045274 
-0.027284 0.084519 0.049235 
-0.025210 0.081354 0.053528 
-0.020625 0.080658 0.056604 
-0.022294 0.092445 0.051508 
-0.024084 0.093823 0.047565 
-0.023185 0.118381 0.033155 
-0.022923 0.124207 0.022533 
-0.021370 0.124124 -0.004069 
-0.022760 0.119956 -0.011148 
-0.023335 0.115000 -0.015720 
-0.024220 0.109317 -0.020742 
-0.021744 0.097005 -0.024629 
-0.020659 0.074772 -0.039133 
-0.022530 0.069885 -0.037633 
-0.019445 0.050017 -0.030112 
-0.019801 0.045655 -0.027818 
-0.026163 0.055115 -0.027493 
-0.027713 0.056546 -0.025389 
-0.029266 0.051782 -0.021684 
-0.029287 0.048890 -0.023360 
-0.030305 0.050828 -0.018170 
-0.035659 0.033622 -0.029783 
-0.032071 0.036933 0.005940 
-0.032088 0.036406 0.035368 
-0.033039 0.034982 0.047414 
-0.031159 0.043345 0.050447 
-0.032583 0.054821 0.037317 
-0.031113 0.059395 0.037674 
-0.035222 0.070267 0.041837 
-0.038273 0.075453 0.042224 
-0.037398 0.066582 0.041721 
-0.038925 0.058607 0.040414 
-0.038291 0.051764 0.039074 
-0.038743 0.042585 0.041415 
-0.034841 0.033803 0.012399 
-0.036450 0.038286 -0.003769 
-0.035703 0.034281 -0.031120 
-0.037412 0.043055 -0.027258 
-0.037758 0.059451 -0.011500 
-0.038250 0.067712 -0.015253 
-0.035765 0.069178 -0.016420 
-0.040405 0.062133 -0.012720 
-0.037136 0.048668 -0.013101 
-0.037953 0.045905 -0.023148 
-0.040195 0.045752 -0.021699 
-0.035143 0.052072 -0.010194 
-0.038431 0.071675 -0.017105 
-0.038304 0.075159 -0.017983 
-0.039331 0.081583 -0.020480 
-0.036244 0.081753 -0.022193 
-0.041588 0.107428 -0.020012 
-0.037325 0.128027 0.005680 
-0.041661 0.126593 0.018908 
-0.040327 0.097380 0.041899 
-0.043129 0.105972 0.040764 
-0.041809 0.110883 0.037127 
-0.040095 0.119616 0.030024 
-0.044101 0.122873 0.024841 
-0.044101 0.125407 0.020663 
-0.042099 0.128406 0.001497 
-0.041162 0.092026 -0.023297 
-0.043093 0.064307 -0.014226 
-0.043287 0.039344 -0.023372 
-0.041005 0.048519 -0.011661 
-0.042657 0.050369 -0.011002 
-0.042341 0.056756 -0.011621 
-0.043283 0.071136 -0.017845 
-0.042902 0.076607 -0.018863 
-0.041403 0.085008 -0.021299 
-0.041950 0.087495 -0.021586 
-0.044029 0.096114 -0.022125 
-0.046066 0.110471 -0.017775 
-0.041802 0.121632 -0.012153 
-0.044335 0.126254 -0.007209 
-0.043697 0.100055 0.042329 
-0.041495 0.091811 0.042390 
-0.042366 0.087459 0.042474 
-0.043050 0.060643 0.040375 
-0.042628 0.067687 0.041408 
-0.044262 0.071045 0.042188 
-0.041111 0.077836 0.043312 
-0.041887 0.084577 0.042518 
-0.038928 0.080140 0.043166 
-0.037921 0.084190 0.044133 
-0.039423 0.061225 0.041435 
-0.038549 0.035258 0.042790 
-0.038201 0.035257 0.025660 
-0.039452 0.036492 0.019980 
-0.037701 0.033679 0.009054 
-0.039009 0.035078 -0.004028 
-0.042295 0.038435 -0.026486 
-0.044963 0.053584 -0.010774 
-0.045179 0.060602 -0.012702 
-0.045332 0.067263 -0.015495 
-0.047603 0.119038 -0.014125 
-0.047023 0.127940 -0.003309 
-0.045829 0.122497 0.025751 
-0.047051 0.117945 0.030451 
-0.045811 0.109575 0.038619 
-0.045864 0.094991 0.043418 
-0.046019 0.083592 0.044066 
-0.046425 0.087749 0.044669 
-0.047705 0.120978 0.028364 
-0.047777 0.125301 0.029231 
-0.049971 0.126743 0.032348 
-0.048213 0.129660 0.028108 
-0.048251 0.137444 0.012565 
-0.049011 0.136444 0.005181 
-0.045840 0.131069 0.021020 
-0.049295 0.134446 0.024846 
-0.045819 0.132432 0.011342 
-0.047339 0.135073 0.013708 
-0.049669 0.128982 -0.002408 
-0.048877 0.092459 -0.021610 
-0.044406 0.090303 -0.022198 
-0.045934 0.081326 -0.020230 
-0.047122 0.074543 -0.017066 
-0.046423 0.046911 -0.009969 
-0.048460 0.059719 -0.011784 
-0.049298 0.072659 -0.015716 
-0.049663 0.078766 -0.019358 
-0.052089 0.097444 -0.022324 
-0.051028 0.109276 -0.018887 
-0.049254 0.114882 -0.015893 
-0.049511 0.122845 -0.010746 
-0.050250 0.127113 -0.005004 
-0.049799 0.139345 0.016908 
-0.049684 0.136740 0.020833 
-0.048745 0.118764 0.030970 
-0.052777 0.116386 0.033723 
-0.046805 0.113243 0.035108 
-0.051683 0.110253 0.037526 
-0.049987 0.105449 0.039737 
-0.050052 0.100436 0.042942 
-0.049036 0.095327 0.044794 
-0.048917 0.091995 0.044223 
-0.051058 0.082408 0.044391 
-0.051280 0.074071 0.042348 
-0.048763 0.077595 0.043935 
-0.046963 0.073863 0.041865 
-0.045033 0.078819 0.042198 
-0.046264 0.043074 0.043739 
-0.041767 0.034617 0.039850 
-0.043924 0.033711 0.024715 
-0.045086 0.034412 0.019981 
-0.044075 0.041935 0.019862 
-0.043249 0.033658 -0.012753 
-0.044486 0.034467 -0.024392 
-0.046107 0.042749 -0.011579 
-0.044647 0.039771 -0.021911 
-0.046063 0.037057 -0.020216 
-0.048059 0.036673 -0.012526 
-0.046203 0.038332 -0.017710 
-0.048121 0.051468 -0.009058 
-0.048359 0.064017 -0.012827 
-0.053484 0.075609 -0.018508 
-0.053187 0.085420 -0.021533 
-0.052466 0.101116 -0.021462 
-0.051199 0.106896 -0.019190 
-0.054145 0.123903 -0.007633 
-0.052747 0.133369 -0.003652 
-0.052952 0.127615 -0.004971 
-0.052034 0.116943 -0.014790 
-0.050601 0.067460 -0.013123 
-0.050471 0.051991 -0.008114 
-0.049974 0.045952 -0.009155 
-0.053985 0.033466 0.009210 
-0.052858 0.033453 0.014571 
-0.054599 0.033482 0.017702 
-0.052813 0.033656 0.022863 
-0.050264 0.036103 0.046307 
-0.053366 0.043691 0.045391 
-0.049343 0.047300 0.040176 
-0.053089 0.049169 0.037523 
-0.053531 0.048582 0.026962 
-0.052990 0.045388 0.021326 
-0.050834 0.041176 0.045797 
-0.047018 0.049280 0.038510 
-0.051377 0.049702 0.036309 
-0.049517 0.051529 0.035553 
-0.050160 0.053542 0.033457 
-0.051605 0.063790 0.033476 
-0.051468 0.066021 0.036190 
-0.050899 0.069577 0.038125 
-0.053685 0.113537 0.035226 
-0.051806 0.122166 0.035103 
-0.056247 0.123797 0.039788 
-0.056331 0.117537 0.037890 
-0.061350 0.152900 0.033712 
-0.058929 0.155830 0.012399 
-0.058867 0.156683 0.007637 
-0.059925 0.152929 0.000378 
-0.062059 0.151665 -0.000333 
-0.059755 0.147340 -0.002075 
-0.060859 0.154802 0.003147 
-0.057915 0.151968 0.032946 
-0.057961 0.153740 0.029617 
-0.055802 0.154084 0.025256 
-0.056952 0.159653 0.003888 
-0.055118 0.152352 0.028004 
-0.054828 0.154353 0.015993 
-0.054465 0.155316 0.012264 
-0.056910 0.156442 0.009998 
-0.054065 0.160185 0.006917 
-0.057705 0.154895 -0.000077 
-0.057361 0.138601 -0.005119 
-0.055033 0.143644 -0.001347 
-0.054632 0.156267 -0.002243 
-0.050863 0.163689 -0.003225 
-0.052605 0.162888 0.003643 
-0.052038 0.152763 0.012647 
-0.051815 0.150506 0.015620 
-0.051955 0.163973 0.001115 
-0.051806 0.156753 -0.004480 
-0.050319 0.162498 0.005870 
-0.052038 0.156538 0.010612 
-0.050265 0.150471 0.012035 
-0.047427 0.158265 0.008607 
-0.046145 0.162711 0.006162 
-0.049031 0.163226 -0.005492 
-0.047753 0.160444 -0.007182 
-0.048489 0.155187 -0.006418 
-0.045759 0.169031 -0.005633 
-0.047773 0.166405 0.002912 
-0.045499 0.153854 0.008496 
-0.043877 0.160935 0.006133 
-0.044132 0.170240 -0.000906 
-0.044770 0.165494 -0.008699 
-0.046879 0.151877 -0.005448 
-0.044784 0.149399 -0.004462 
-0.044353 0.146577 0.002481 
-0.044195 0.156936 0.005974 
-0.043912 0.166495 0.004161 
-0.042264 0.169813 0.001220 
-0.044560 0.158186 -0.009160 
-0.044477 0.147396 -0.002504 
-0.041344 0.154045 -0.008249 
-0.038331 0.158842 -0.011901 
-0.042388 0.172264 -0.004572 
-0.038960 0.167164 0.002998 
-0.039755 0.173401 -0.003185 
-0.036958 0.175475 -0.009627 
-0.040097 0.173699 -0.007364 
-0.039557 0.163904 -0.012464 
-0.039729 0.161303 0.001535 
-0.037110 0.163306 -0.001070 
-0.036728 0.153091 0.002321 
-0.034872 0.151788 -0.000581 
-0.036298 0.151700 -0.005177 
-0.035139 0.170392 -0.014429 
-0.037455 0.154149 -0.008758 
-0.035075 0.153781 -0.008077 
-0.035916 0.158318 0.003831 
-0.036242 0.160299 0.000882 
-0.034639 0.166129 -0.003481 
-0.036002 0.167946 -0.000224 
-0.030624 0.157837 -0.011895 
-0.032172 0.157885 0.002299 
-0.033189 0.163692 -0.003596 
-0.031884 0.169197 -0.005915 
-0.031569 0.173576 -0.003568 
-0.030367 0.178397 -0.005116 
-0.031788 0.171446 -0.016107 
-0.036732 0.176068 -0.006415 
-0.031340 0.179308 -0.009993 
-0.033199 0.175129 -0.002356 
-0.033991 0.173600 -0.001199 
-0.034535 0.162174 -0.014129 
-0.030960 0.153644 -0.002707 
-0.031769 0.154649 -0.000328 
-0.032947 0.160467 0.001495 
-0.030827 0.176448 -0.003909 
-0.030874 0.168114 -0.016735 
-0.029227 0.170389 -0.017705 
-0.027318 0.181216 -0.007761 
-0.028509 0.179351 -0.006013 
-0.029736 0.162635 -0.003896 
-0.031304 0.156132 -0.010046 
-0.029590 0.160860 -0.014189 
-0.029366 0.176285 -0.016438 
-0.026400 0.178724 -0.008052 
-0.026449 0.174542 -0.010393 
-0.026848 0.170472 -0.010281 
-0.028324 0.159463 0.000660 
-0.025086 0.160807 -0.001890 
-0.025121 0.162123 -0.004658 
-0.024096 0.167935 -0.010862 
-0.024994 0.182192 -0.009354 
-0.025889 0.182995 -0.012108 
-0.026235 0.181168 -0.015867 
-0.023938 0.183993 -0.011764 
-0.022670 0.178020 -0.013477 
-0.022423 0.183421 -0.011372 
-0.022804 0.185196 -0.014556 
-0.022609 0.179243 -0.020859 
-0.021331 0.185680 -0.013905 
-0.022680 0.171248 -0.013096 
-0.019697 0.185504 -0.015003 
-0.019812 0.186862 -0.016960 
-0.018773 0.187608 -0.019055 
-0.021455 0.184543 -0.019577 
-0.022090 0.174370 -0.021335 
-0.017767 0.187364 -0.021049 
-0.015042 0.184074 -0.021883 
-0.016165 0.187166 -0.021542 
-0.016409 0.185252 -0.025040 
-0.013979 0.180131 -0.028187 
-0.014199 0.184034 -0.027434 
-0.012167 0.163402 -0.013460 
-0.013875 0.164228 -0.017864 
-0.011839 0.175706 -0.028712 
-0.011681 0.183433 -0.027701 
-0.010864 0.177431 -0.024372 
-0.011329 0.180738 -0.029558 
-0.009462 0.175143 -0.028968 
-0.010172 0.170680 -0.026448 
-0.012127 0.168585 -0.023596 
-0.009868 0.166061 -0.017937 
-0.011667 0.166723 -0.015578 
-0.009744 0.179734 -0.029004 
-0.009489 0.167539 -0.022722 
-0.008819 0.171820 -0.026862 
-0.009530 0.169568 -0.020439 
-0.008748 0.169829 -0.023934 
-0.008713 0.175002 -0.027622 
-0.011415 0.163943 -0.016547 
-0.010985 0.165427 -0.020178 
-0.015011 0.161593 -0.009486 
-0.015597 0.162981 -0.009432 
-0.021510 0.162438 -0.015282 
-0.021685 0.165855 -0.017806 
-0.014637 0.166995 -0.020750 
-0.019431 0.171696 -0.021631 
-0.021586 0.159390 -0.011891 
-0.019615 0.175006 -0.016053 
-0.017090 0.176996 -0.018403 
-0.015566 0.179911 -0.020448 
-0.014261 0.185438 -0.025429 
-0.013444 0.173970 -0.019779 
-0.014216 0.164663 -0.011975 
-0.014068 0.161593 -0.011526 
-0.015378 0.161422 -0.013823 
-0.016332 0.172867 -0.024020 
-0.015325 0.171213 -0.017159 
-0.017367 0.167473 -0.013546 
-0.019384 0.180697 -0.016531 
-0.021944 0.163903 -0.008307 
-0.019446 0.161597 -0.005752 
-0.016990 0.160814 -0.007172 
-0.020466 0.158457 -0.005776 
-0.021859 0.157570 -0.007617 
-0.022397 0.161576 -0.004021 
-0.023987 0.156736 -0.004238 
-0.027129 0.165545 -0.016736 
-0.019676 0.168509 -0.019877 
-0.024931 0.178638 -0.019306 
-0.025307 0.170341 -0.019167 
-0.023499 0.159499 -0.002080 
-0.017253 0.159477 -0.009816 
-0.016756 0.177319 -0.025302 
-0.018782 0.180943 -0.024053 
-0.028847 0.154916 -0.006856 
-0.031818 0.160309 -0.000534 
-0.029931 0.166068 -0.006687 
-0.034508 0.174298 -0.013222 
-0.031329 0.178593 -0.012365 
-0.040196 0.170351 -0.010637 
-0.036679 0.170891 0.001074 
-0.040027 0.156048 0.005918 
-0.035909 0.151157 -0.002583 
-0.036457 0.165511 -0.014282 
-0.041685 0.158592 0.003676 
-0.039644 0.157659 0.004895 
-0.040464 0.151419 0.004357 
-0.040420 0.149081 0.002347 
-0.044099 0.148034 0.005692 
-0.049463 0.148271 0.011337 
-0.049352 0.143832 0.008843 
-0.051362 0.145347 0.014491 
-0.053668 0.137425 0.029282 
-0.057708 0.127921 0.039361 
-0.057243 0.133101 0.036185 
-0.057658 0.148029 0.032354 
-0.054655 0.147410 0.027114 
-0.052926 0.149428 0.022326 
-0.053091 0.145946 0.021642 
-0.053831 0.151613 0.024884 
-0.052332 0.140386 0.022377 
-0.052746 0.138465 0.026416 
-0.054129 0.134955 0.032040 
-0.057115 0.137638 0.032603 
-0.054611 0.141563 0.028832 
-0.055425 0.144864 0.030741 
-0.054808 0.128944 0.036410 
-0.050167 0.131380 0.030401 
-0.052070 0.144867 0.017048 
-0.048198 0.145229 0.007675 
-0.050070 0.144175 0.000961 
-0.050065 0.147702 -0.002739 
-0.047339 0.145347 -0.000102 
-0.046049 0.145254 0.003968 
-0.049127 0.143579 0.004166 
-0.053305 0.151934 -0.003152 
-0.056524 0.150518 -0.001515 
-0.055259 0.148296 -0.001915 
-0.052498 0.138741 0.000030 
-0.054975 0.136052 -0.003263 
-0.052086 0.143568 -0.000017 
-0.045697 0.149072 0.007892 
-0.048624 0.167303 -0.001900 
-0.055177 0.160868 0.000649 
-0.055466 0.105479 -0.018593 
-0.056079 0.111573 -0.017205 
-0.056452 0.117005 -0.013653 
-0.057176 0.123658 -0.007583 
-0.056362 0.132377 -0.005709 
-0.059267 0.133779 -0.006695 
-0.061298 0.140761 -0.005742 
-0.060034 0.143487 -0.003237 
-0.062814 0.153431 0.001509 
-0.060941 0.155464 0.005445 
-0.061055 0.155924 0.021714 
-0.061888 0.155015 0.027685 
-0.063406 0.154040 0.031610 
-0.064094 0.146971 0.038526 
-0.063734 0.151946 -0.002811 
-0.064319 0.169320 -0.043158 
-0.062050 0.177201 -0.060040 
-0.062287 0.176645 -0.061355 
-0.061660 0.170054 -0.061755 
-0.062579 0.167522 -0.046215 
-0.062094 0.160241 -0.023091 
-0.062025 0.147518 -0.004512 
-0.062331 0.148377 -0.009952 
-0.063197 0.153769 -0.010223 
-0.062337 0.155879 -0.015795 
-0.063371 0.145320 -0.013090 
-0.063536 0.150648 -0.029645 
-0.063446 0.154340 -0.036596 
-0.064219 0.158538 -0.054640 
-0.062653 0.162335 -0.058214 
-0.062205 0.165451 -0.060330 
-0.061337 0.166189 -0.059624 
-0.062401 0.164377 -0.047309 
-0.061691 0.161035 -0.034874 
-0.061624 0.160143 -0.028938 
-0.062183 0.152083 -0.015185 
-0.062930 0.149022 -0.018972 
-0.062237 0.152899 -0.028190 
-0.062872 0.161593 -0.050640 
-0.063406 0.158891 -0.045373 
-0.061482 0.155832 -0.022268 
-0.061936 0.156441 -0.033113 
-0.062539 0.159251 -0.040655 
-0.064515 0.166237 -0.060194 
-0.064370 0.147369 -0.022074 
-0.062997 0.143416 -0.007366 
-0.065007 0.141252 -0.007919 
-0.065540 0.142977 -0.010819 
-0.066706 0.144880 -0.018206 
-0.067258 0.146432 -0.024891 
-0.066069 0.155056 -0.051411 
-0.065706 0.159896 -0.057056 
-0.066678 0.162484 -0.057807 
-0.067159 0.153426 -0.049628 
-0.069071 0.150130 -0.042416 
-0.068150 0.148267 -0.033157 
-0.070225 0.138820 -0.007677 
-0.070450 0.128520 -0.009247 
-0.068338 0.111630 -0.011077 
-0.069397 0.122853 -0.008925 
-0.071901 0.131339 -0.008307 
-0.069288 0.141090 -0.008475 
-0.069596 0.142694 -0.011295 
-0.069856 0.144172 -0.016089 
-0.069848 0.145723 -0.023057 
-0.071603 0.149187 -0.038992 
-0.068111 0.166474 -0.054568 
-0.068099 0.158340 -0.054901 
-0.069675 0.160468 -0.049586 
-0.070938 0.158617 -0.043794 
-0.071660 0.156156 -0.040481 
-0.072002 0.159073 -0.039525 
-0.073511 0.161210 -0.035209 
-0.073529 0.150858 -0.036067 
-0.071901 0.150598 -0.042531 
-0.073541 0.153460 -0.031330 
-0.074339 0.154755 -0.020999 
-0.074847 0.153483 -0.017808 
-0.075555 0.150595 -0.009651 
-0.077280 0.153795 0.002056 
-0.076807 0.155600 0.011599 
-0.078177 0.136600 0.050414 
-0.076942 0.128148 0.053472 
-0.078858 0.123177 0.051628 
-0.076572 0.117929 0.052234 
-0.078097 0.112827 0.047101 
-0.077765 0.108838 0.038935 
-0.076931 0.107239 0.035082 
-0.078063 0.104033 0.033617 
-0.080374 0.154591 0.024716 
-0.079565 0.154657 0.009637 
-0.080810 0.151513 0.002100 
-0.082338 0.154599 0.014652 
-0.080977 0.153194 0.028846 
-0.081392 0.137276 0.048596 
-0.080589 0.132456 0.051897 
-0.082300 0.128900 0.052159 
-0.081173 0.126517 0.052691 
-0.082628 0.124231 0.050763 
-0.081798 0.121631 0.049318 
-0.080596 0.116955 0.048606 
-0.081003 0.112584 0.045867 
-0.079607 0.108965 0.035646 
-0.079566 0.108181 0.031606 
-0.082719 0.097957 0.031431 
-0.080867 0.093616 0.033789 
-0.078909 0.083063 0.035449 
-0.078835 0.093247 0.035649 
-0.077923 0.097995 0.035972 
-0.074743 0.108125 0.037747 
-0.077582 0.110164 0.044558 
-0.076471 0.132251 0.052643 
-0.078440 0.141892 0.046645 
-0.075775 0.174646 -0.041090 
-0.075111 0.176956 -0.044825 
-0.074679 0.179026 -0.048103 
-0.075566 0.171398 -0.033862 
-0.075818 0.167274 -0.024550 
-0.074830 0.160675 -0.010815 
-0.073788 0.156504 -0.001056 
-0.075534 0.154690 0.028379 
-0.072131 0.142313 0.046170 
-0.074565 0.146922 0.042699 
-0.076484 0.152306 0.034372 
-0.072605 0.155917 0.025062 
-0.072142 0.155521 0.004393 
-0.072989 0.158796 -0.005572 
-0.073087 0.164339 -0.015526 
-0.072595 0.168568 -0.023792 
-0.073516 0.172112 -0.034157 
-0.070866 0.172781 -0.037722 
-0.073468 0.173637 -0.038082 
-0.072410 0.176024 -0.043904 
-0.071584 0.180917 -0.052432 
-0.073375 0.169216 -0.045493 
-0.075257 0.152539 -0.014871 
-0.077068 0.153438 -0.006173 
-0.077843 0.152248 -0.001446 
-0.077667 0.168980 -0.031877 
-0.077804 0.176279 -0.045949 
-0.076931 0.178542 -0.051520 
-0.074844 0.162206 -0.033491 
-0.075597 0.159635 -0.027448 
-0.076882 0.160724 -0.014831 
-0.077080 0.153794 -0.009491 
-0.077397 0.155048 -0.014659 
-0.078125 0.158360 -0.019692 
-0.078713 0.164725 -0.033006 
-0.078231 0.176298 -0.049522 
-0.078719 0.174663 -0.046459 
-0.078389 0.171982 -0.039691 
-0.078544 0.161787 -0.026896 
-0.078235 0.160152 -0.023420 
-0.078655 0.167071 -0.037625 
-0.079173 0.169916 -0.041278 
-0.079169 0.172365 -0.043557 
-0.079295 0.169595 -0.038279 
-0.079408 0.167299 -0.035880 
-0.078839 0.164157 -0.029448 
-0.077645 0.164248 -0.024114 
-0.078030 0.166553 -0.029056 
-0.077898 0.172468 -0.045897 
-0.076870 0.155859 -0.018931 
-0.075347 0.168039 -0.041878 
-0.074390 0.174655 -0.050562 
-0.073851 0.178554 -0.054229 
-0.072687 0.180731 -0.055390 
-0.072469 0.165094 -0.042861 
-0.073913 0.164466 -0.038702 
-0.073749 0.157874 -0.028999 
-0.076126 0.163634 -0.018000 
-0.075831 0.157108 -0.006561 
-0.073770 0.155500 -0.025453 
-0.070801 0.166939 -0.048400 
-0.071753 0.173143 -0.051640 
-0.068650 0.174727 -0.045376 
-0.070454 0.170969 -0.031151 
-0.071032 0.165278 -0.016984 
-0.071419 0.161582 -0.009670 
-0.073693 0.135820 0.050262 
-0.069826 0.139955 0.046546 
-0.069156 0.148049 0.040863 
-0.068293 0.151233 0.037437 
-0.071906 0.153999 0.031806 
-0.072175 0.156361 0.014382 
-0.070318 0.155859 0.001952 
-0.070304 0.157992 -0.003618 
-0.068672 0.162393 -0.012649 
-0.067880 0.171583 -0.038547 
-0.069869 0.181414 -0.056648 
-0.068590 0.177026 -0.058035 
-0.068665 0.177995 -0.050230 
-0.065107 0.166121 -0.027441 
-0.068779 0.168392 -0.025893 
-0.066416 0.163480 -0.017852 
-0.070920 0.156441 0.021261 
-0.067549 0.143395 0.043360 
-0.065714 0.142829 0.041378 
-0.066447 0.146985 0.040253 
-0.064415 0.149959 0.037435 
-0.067877 0.155835 0.026382 
-0.067134 0.155814 -0.003527 
-0.064880 0.156701 -0.009553 
-0.064138 0.163006 -0.022111 
-0.066768 0.169124 -0.031914 
-0.065620 0.169206 -0.035828 
-0.066668 0.172327 -0.043364 
-0.065063 0.173490 -0.048775 
-0.064795 0.174569 -0.061031 
-0.066147 0.172376 -0.059204 
-0.065787 0.179114 -0.060487 
-0.068339 0.171550 -0.055603 
-0.065924 0.179969 -0.055732 
-0.063313 0.152118 -0.006246 
-0.063814 0.177780 -0.055923 
-0.064822 0.180059 -0.060099 
-0.067529 0.181338 -0.058188 
-0.068720 0.166417 -0.021096 
-0.066398 0.160072 -0.012311 
-0.065651 0.153776 0.000225 
-0.067141 0.154665 0.002294 
-0.065522 0.127075 0.047934 
-0.063562 0.124782 0.046323 
-0.060284 0.143018 0.036164 
-0.063576 0.141351 0.038314 
-0.062261 0.137687 0.035495 
-0.062540 0.133245 0.038908 
-0.061818 0.127638 0.041709 
-0.060993 0.123352 0.042493 
-0.061227 0.119598 0.041672 
-0.063576 0.120221 0.047195 
-0.066214 0.109449 0.037777 
-0.063069 0.114010 0.038644 
-0.066064 0.123331 0.050683 
-0.067568 0.118863 0.052266 
-0.070077 0.114720 0.051373 
-0.069366 0.123874 0.053015 
-0.070636 0.128418 0.051519 
-0.070260 0.130184 0.050278 
-0.064447 0.133812 0.040244 
-0.066618 0.133744 0.044407 
-0.067677 0.131990 0.046724 
-0.074361 0.121614 0.053656 
-0.071516 0.118227 0.053306 
-0.070698 0.095818 0.041975 
-0.072706 0.101816 0.038328 
-0.074910 0.126522 0.052991 
-0.075958 0.114352 0.050645 
-0.073626 0.111270 0.046855 
-0.076962 0.088151 0.038438 
-0.074852 0.095403 0.039322 
-0.072355 0.092843 0.041570 
-0.073681 0.087661 0.040428 
-0.069650 0.086449 0.042465 
-0.071122 0.109007 0.037652 
-0.068934 0.112997 0.048140 
-0.068366 0.109981 0.037991 
-0.068754 0.091705 0.042408 
-0.068282 0.064160 0.024214 
-0.069382 0.061264 0.012186 
-0.067687 0.062800 0.001388 
-0.070160 0.068301 -0.004602 
-0.069978 0.082074 -0.016968 
-0.065930 0.082513 -0.018599 
-0.067325 0.134904 -0.008331 
-0.064294 0.139838 -0.007422 
-0.063153 0.102420 -0.018200 
-0.062194 0.106833 -0.016669 
-0.059919 0.113191 -0.014909 
-0.061382 0.117498 -0.010983 
-0.060457 0.121213 -0.008949 
-0.064143 0.128689 -0.008677 
-0.064756 0.106998 -0.014676 
-0.067114 0.103107 -0.015487 
-0.066122 0.098816 -0.016444 
-0.064743 0.094783 -0.018310 
-0.065319 0.086129 -0.018918 
-0.062816 0.060665 0.001299 
-0.062224 0.072753 0.039502 
-0.065083 0.101838 0.041702 
-0.061307 0.113453 0.036585 
-0.061115 0.116194 0.038763 
-0.058653 0.104077 0.041597 
-0.058212 0.097873 0.043137 
-0.060860 0.079771 0.042866 
-0.057535 0.086571 0.044317 
-0.061419 0.088559 0.045480 
-0.056002 0.100527 0.043117 
-0.059824 0.111698 0.036430 
-0.056429 0.114170 0.035684 
-0.057079 0.094678 0.044812 
-0.059079 0.091706 0.045439 
-0.054794 0.107249 0.039932 
-0.053417 0.089907 0.044884 
-0.053630 0.085695 0.045475 
-0.053051 0.076761 0.042950 
-0.054951 0.056648 0.010647 
-0.057945 0.041881 0.021326 
-0.055209 0.048378 0.029804 
-0.055369 0.046907 0.041924 
-0.057141 0.035633 0.046267 
-0.052466 0.034395 -0.012562 
-0.055248 0.044268 -0.007483 
-0.054830 0.048407 -0.005352 
-0.054435 0.055094 -0.005302 
-0.053921 0.056651 0.016146 
-0.064080 0.062640 0.024961 
-0.058649 0.064283 0.031900 
-0.058231 0.069417 0.038023 
-0.055140 0.080497 0.044975 
-0.057482 0.076801 0.043155 
-0.059860 0.067053 0.035214 
-0.057692 0.059294 0.021658 
-0.060641 0.058293 0.014049 
-0.055446 0.054473 0.008639 
-0.056748 0.056107 0.006045 
-0.057190 0.054117 0.001414 
-0.055877 0.050528 0.009185 
-0.055270 0.048922 0.036685 
-0.059731 0.045976 0.041631 
-0.057551 0.041144 0.046352 
-0.055673 0.039151 0.047374 
-0.054590 0.034118 0.025991 
-0.054980 0.033368 -0.006350 
-0.057262 0.033892 -0.011053 
-0.056594 0.047645 -0.003678 
-0.058521 0.048367 0.005648 
-0.053265 0.045834 0.015629 
-0.057412 0.045083 0.043756 
-0.058545 0.034596 0.044089 
-0.060686 0.034324 0.033199 
-0.061223 0.033920 -0.009629 
-0.061291 0.042010 -0.006914 
-0.059591 0.045079 -0.004261 
-0.058590 0.048253 0.001836 
-0.060980 0.047513 0.005572 
-0.062201 0.044456 0.011662 
-0.061223 0.041637 0.015944 
-0.059114 0.039878 0.019885 
-0.063605 0.041746 0.026634 
-0.061027 0.044751 0.028287 
-0.060217 0.047217 0.037551 
-0.060604 0.038778 0.021908 
-0.061938 0.036187 0.020345 
-0.061295 0.033352 -0.005096 
-0.061371 0.034160 0.023402 
-0.062047 0.041870 0.042807 
-0.063536 0.044148 0.037826 
-0.062050 0.046076 0.033577 
-0.063584 0.043957 0.030622 
-0.061986 0.040448 0.023837 
-0.062907 0.035805 0.043249 
-0.063194 0.034705 0.040596 
-0.065144 0.034611 0.034985 
-0.063039 0.036472 0.022851 
-0.064629 0.036383 0.021198 
-0.063104 0.037350 0.021803 
-0.061823 0.036472 0.022072 
-0.061893 0.035703 0.022932 
-0.062848 0.038772 0.024890 
-0.063575 0.036361 0.022702 
-0.064286 0.035330 0.023010 
-0.065684 0.036109 0.039566 
-0.065360 0.034725 0.028902 
-0.066423 0.035611 0.036879 
-0.065482 0.036124 0.025948 
-0.067177 0.036158 0.032116 
-0.064994 0.043033 0.034529 
-0.065007 0.038766 0.027098 
-0.065824 0.039351 0.029193 
-0.064934 0.046213 0.005299 
-0.065560 0.042430 -0.004026 
-0.063096 0.033826 -0.008502 
-0.063248 0.033525 0.005130 
-0.062099 0.035104 0.020937 
-0.065539 0.043550 -0.001728 
-0.065705 0.038182 -0.007004 
-0.066317 0.035089 0.015051 
-0.067502 0.038572 -0.005896 
-0.066552 0.045061 0.007367 
-0.066198 0.043004 0.010450 
-0.064583 0.036180 0.017012 
-0.067020 0.044891 0.003021 
-0.069179 0.039983 -0.001181 
-0.068498 0.039387 -0.003539 
-0.069350 0.042438 0.004299 
-0.069525 0.042483 0.001878 
-0.071387 0.039280 0.003998 
-0.071454 0.038008 0.000560 
-0.071365 0.040403 0.007270 
-0.072727 0.035842 0.007623 
-0.072398 0.038282 0.005923 
-0.072719 0.035121 0.000887 
-0.072329 0.034968 0.004188 
-0.070517 0.034043 0.007653 
-0.070716 0.035091 0.010033 
-0.069500 0.036322 0.011511 
-0.070035 0.033657 -0.000782 
-0.067331 0.033893 -0.006418 
-0.070013 0.036352 -0.002117 
-0.070424 0.034514 -0.003692 
-0.066107 0.039931 0.013843 
-0.065434 0.034227 -0.007651 
-0.059689 0.037495 0.046028 
-0.061334 0.033995 0.017556 
-0.060129 0.039683 -0.008461 
-0.059586 0.042074 0.044414 
-0.057409 0.050024 0.000275 
-0.059297 0.074301 0.041814 
-0.063788 0.061144 0.021897 
-0.059412 0.058711 0.006025 
-0.058823 0.059583 0.001292 
-0.059570 0.061075 -0.002398 
-0.058731 0.063511 -0.006461 
-0.060047 0.075773 -0.018126 
-0.061351 0.082088 -0.019550 
-0.060468 0.095066 -0.019003 
-0.058554 0.096772 -0.020440 
-0.055102 0.097797 -0.021411 
-0.056443 0.094409 -0.021701 
-0.053907 0.065137 -0.009587 
-0.056982 0.059868 -0.002126 
-0.057173 0.058120 0.000522 
-0.055924 0.062073 -0.005833 
-0.054347 0.067694 -0.012512 
-0.060031 0.069152 -0.014123 
-0.057757 0.071815 -0.016399 
-0.055030 0.081012 -0.021423 
-0.058052 0.088789 -0.021260 
-0.051995 0.070420 -0.014964 
-0.056000 0.120886 -0.010142 
-0.057896 0.100617 -0.019200 
-0.054088 0.089714 -0.022336 
-0.057168 0.083251 -0.021347 
-0.056499 0.076239 -0.019061 
-0.052610 0.061405 -0.009560 
-0.053401 0.053211 -0.006068 
-0.062076 0.066611 -0.009130 
-0.063079 0.059029 0.010516 
-0.063078 0.059812 0.018345 
-0.054133 0.048784 0.033858 
-0.057013 0.044690 0.024300 
-0.055141 0.042796 0.018906 
-0.056697 0.047126 0.011082 
-0.052972 0.056210 0.012873 
-0.053082 0.056269 0.017567 
-0.050961 0.054961 0.018984 
-0.052150 0.057364 0.027506 
-0.052006 0.055583 0.023819 
-0.052756 0.057725 0.022209 
-0.053691 0.060215 0.025642 
-0.052914 0.061543 0.029124 
-0.050492 0.060666 0.032866 
-0.051787 0.053194 0.029372 
-0.051948 0.048951 0.013970 
-0.050634 0.049807 0.019676 
-0.051435 0.053407 0.013431 
-0.052465 0.049466 0.024037 
-0.050968 0.046595 0.017653 
-0.049782 0.053533 0.015839 
-0.051938 0.050622 0.031663 
-0.052072 0.057041 0.015057 
-0.053687 0.071422 0.039669 
-0.053146 0.094753 0.043737 
-0.053130 0.099634 0.042549 
-0.065300 0.107740 0.038650 
-0.066349 0.115510 0.048634 
-0.064202 0.115642 0.044142 
-0.065584 0.111966 0.039156 
-0.065778 0.088701 0.044778 
-0.066503 0.083597 0.043621 
-0.065114 0.067723 0.033726 
-0.069520 0.062409 0.019437 
-0.067609 0.061133 0.006679 
-0.065945 0.062761 -0.002822 
-0.067620 0.074574 -0.015069 
-0.064966 0.075223 -0.016930 
-0.062369 0.061234 -0.001966 
-0.067277 0.060568 0.015899 
-0.064750 0.065348 0.030153 
-0.065803 0.077677 0.041023 
-0.064097 0.081044 0.043573 
-0.061753 0.093110 0.045119 
-0.065022 0.097087 0.042284 
-0.064145 0.064790 -0.005965 
-0.067121 0.099484 0.041539 
-0.067317 0.090599 -0.017169 
-0.064884 0.113202 -0.012361 
-0.066892 0.117054 -0.008915 
-0.061563 0.127648 -0.008095 
-0.072155 0.102750 -0.012995 
-0.071921 0.147667 -0.029664 
-0.071251 0.148319 -0.034275 
-0.070925 0.152976 -0.047286 
-0.069919 0.154238 -0.049793 
-0.072236 0.151889 -0.042202 
-0.071784 0.147159 -0.025029 
-0.072430 0.144959 -0.016435 
-0.072625 0.144004 -0.012226 
-0.073075 0.142877 -0.008265 
-0.073925 0.149524 -0.032766 
-0.076118 0.150771 -0.020159 
-0.076208 0.149721 -0.014673 
-0.076282 0.148475 -0.010443 
-0.077176 0.147991 -0.006150 
-0.078016 0.147811 -0.003188 
-0.076790 0.145103 -0.004673 
-0.081653 0.151381 0.032551 
-0.085148 0.140010 0.043395 
-0.085918 0.145209 0.037197 
-0.083662 0.150380 0.004039 
-0.083713 0.146816 0.003961 
-0.083937 0.154097 0.020286 
-0.087093 0.152950 0.016201 
-0.084775 0.148950 0.033585 
-0.082754 0.115534 0.048197 
-0.081704 0.107753 0.028480 
-0.083755 0.089088 0.029830 
-0.080896 0.084623 0.033624 
-0.081488 0.109943 0.030062 
-0.084137 0.111047 0.042183 
-0.084914 0.114037 0.046790 
-0.083830 0.110247 0.026532 
-0.071886 0.075825 0.037050 
-0.071939 0.080526 0.039420 
-0.070166 0.072509 0.035814 
-0.073208 0.069143 0.028111 
-0.072285 0.073648 -0.010106 
-0.071472 0.088191 -0.016304 
-0.070632 0.096585 -0.015755 
-0.073709 0.096742 -0.014354 
-0.074509 0.109054 -0.008783 
-0.071472 0.115307 -0.007785 
-0.075323 0.136254 -0.006557 
-0.074914 0.143867 -0.006359 
-0.074668 0.149404 -0.027772 
-0.074972 0.151098 -0.027528 
-0.073390 0.147765 -0.021116 
-0.079306 0.139868 -0.004538 
-0.081902 0.146531 0.000799 
-0.085937 0.139521 0.002803 
-0.087431 0.142573 0.010058 
-0.088100 0.138338 0.009487 
-0.089440 0.133080 0.004268 
-0.090840 0.148914 0.013430 
-0.090033 0.151437 0.018231 
-0.089495 0.150749 0.022610 
-0.089519 0.142716 0.030631 
-0.091293 0.147518 0.024230 
-0.091581 0.149251 0.017983 
-0.091576 0.145790 0.018312 
-0.091819 0.141833 0.016368 
-0.091219 0.139700 0.019852 
-0.091143 0.142772 0.026335 
-0.090235 0.139525 0.014998 
-0.087162 0.136536 0.003433 
-0.087677 0.130011 0.001529 
-0.088184 0.120276 0.000435 
-0.086191 0.112743 0.029003 
-0.088602 0.112118 0.037292 
-0.088516 0.112585 0.041222 
-0.089381 0.115805 0.044621 
-0.084507 0.132830 0.049114 
-0.083540 0.153034 0.008670 
-0.085685 0.151399 0.008068 
-0.086403 0.148658 0.007428 
-0.085558 0.143433 0.007349 
-0.088876 0.142300 0.034776 
-0.088456 0.140434 0.038384 
-0.089349 0.138478 0.024670 
-0.088778 0.136914 0.027462 
-0.089459 0.139678 0.029705 
-0.090934 0.134932 0.016536 
-0.092950 0.121790 0.041456 
-0.092632 0.123508 0.029399 
-0.091786 0.119238 0.043536 
-0.089726 0.120762 0.046259 
-0.090021 0.129398 0.042142 
-0.092755 0.125010 0.039690 
-0.090732 0.130315 0.038261 
-0.091558 0.128990 0.031823 
-0.090932 0.124424 0.044186 
-0.091408 0.115012 0.039775 
-0.090179 0.113911 0.032948 
-0.089982 0.114973 0.006074 
-0.091957 0.116234 0.032498 
-0.090437 0.116078 0.027655 
-0.091562 0.115047 0.009693 
-0.092253 0.117565 0.008950 
-0.093628 0.129191 0.018519 
-0.093043 0.128299 0.012634 
-0.094393 0.124051 0.017022 
-0.094342 0.121949 0.024156 
-0.094353 0.126643 0.021907 
-0.094755 0.122583 0.019721 
-0.093621 0.125777 0.025990 
-0.092777 0.116772 0.023136 
-0.094062 0.118917 0.016927 
-0.093697 0.121214 0.012883 
-0.092064 0.113912 0.013889 
-0.092170 0.114112 0.017207 
-0.093337 0.119396 0.039267 
-0.093132 0.119383 0.034582 
-0.092138 0.120002 0.028611 
-0.092500 0.131067 0.024594 
-0.092563 0.123441 0.008747 
-0.089214 0.126569 0.003765 
-0.091781 0.130819 0.009492 
-0.089165 0.113765 0.023515 
-0.091913 0.133271 0.016451 
-0.089839 0.134664 0.007118 
-0.090287 0.135520 0.021741 
-0.091205 0.143436 0.022441 
-0.089575 0.134561 0.029790 
-0.089714 0.139111 0.033841 
-0.088458 0.128097 0.045532 
-0.086676 0.136564 0.044303 
-0.087238 0.147540 0.031890 
-0.086157 0.130125 0.048640 
-0.088348 0.149018 0.027933 
-0.089257 0.150946 0.012518 
-0.089500 0.146704 0.010436 
-0.090136 0.144411 0.013744 
-0.085822 0.119053 0.048920 
-0.085688 0.112323 0.044143 
-0.086893 0.111931 0.032990 
-0.087011 0.110210 0.017959 
-0.087724 0.097683 0.004640 
-0.088869 0.102328 0.014819 
-0.088770 0.101951 0.018279 
-0.088950 0.097032 0.020864 
-0.088288 0.089670 0.022832 
-0.089074 0.095586 0.022115 
-0.089464 0.094864 0.014474 
-0.089826 0.097827 0.015185 
-0.089043 0.096826 0.008224 
-0.088702 0.100873 0.009356 
-0.086961 0.093248 0.003737 
-0.087113 0.104385 0.007910 
-0.087356 0.110382 0.012074 
-0.087468 0.113916 0.004247 
-0.086516 0.121817 -0.002218 
-0.087281 0.126581 -0.001110 
-0.084558 0.130194 -0.002417 
-0.084641 0.121266 -0.003273 
-0.079530 0.127176 -0.005981 
-0.083478 0.127870 -0.004409 
-0.080095 0.131386 -0.004693 
-0.082947 0.142293 0.001966 
-0.081671 0.135490 -0.002573 
-0.084445 0.136808 0.000451 
-0.078637 0.135999 -0.004881 
-0.078543 0.115818 -0.004853 
-0.082721 0.106460 -0.001531 
-0.085513 0.101370 0.000950 
-0.085073 0.109545 0.005589 
-0.085166 0.117198 -0.000736 
-0.083271 0.114487 -0.001136 
-0.084277 0.110145 0.003717 
-0.085781 0.109631 0.008367 
-0.086500 0.108394 0.013157 
-0.083575 0.099624 -0.004332 
-0.083025 0.091736 -0.006587 
-0.085655 0.092360 -0.001634 
-0.085871 0.092140 0.001465 
-0.085450 0.088342 -0.001425 
-0.081274 0.097156 -0.006979 
-0.081989 0.080396 -0.002685 
-0.082005 0.074021 0.007789 
-0.083717 0.081072 0.027541 
-0.082257 0.075641 0.014577 
-0.083957 0.077325 0.009512 
-0.085442 0.078712 0.016849 
-0.085659 0.080025 0.006598 
-0.086758 0.090927 0.026300 
-0.085150 0.085859 0.026054 
-0.086767 0.085858 0.022726 
-0.088798 0.088191 0.014874 
-0.086881 0.084224 0.011450 
-0.086221 0.083286 0.006916 
-0.088851 0.087920 0.017570 
-0.087448 0.085360 0.003804 
-0.089756 0.091188 0.018360 
-0.089634 0.089326 0.011841 
-0.088612 0.088896 0.005843 
-0.087189 0.087922 0.001953 
-0.086616 0.080560 0.015121 
-0.086737 0.084513 0.016815 
-0.086073 0.083836 0.020677 
-0.084747 0.084151 -0.002238 
-0.083995 0.087569 -0.004255 
-0.084520 0.082110 0.003146 
-0.087226 0.096711 0.002643 
-0.088478 0.092777 0.007722 
-0.086693 0.095783 0.026696 
-0.086247 0.102445 0.024911 
-0.086411 0.106948 0.018270 
-0.086053 0.111631 0.024090 
-0.086018 0.124326 0.048535 
-0.084763 0.110468 0.037606 
-0.084299 0.095296 0.030056 
-0.083991 0.107561 0.024816 
-0.085492 0.110058 0.021755 
-0.084527 0.077484 0.007681 
-0.085285 0.079436 0.019162 
-0.083248 0.079216 0.023081 
-0.081628 0.075047 0.018088 
-0.080272 0.075505 -0.003172 
-0.082559 0.075706 0.002409 
-0.080671 0.071659 0.009082 
-0.081810 0.079516 0.029593 
-0.081881 0.077450 -0.000551 
-0.079416 0.083188 -0.009175 
-0.081050 0.093999 -0.008500 
-0.078214 0.112166 -0.003120 
-0.077550 0.102001 -0.009616 
-0.076576 0.098643 -0.011471 
-0.077663 0.084858 -0.011808 
-0.075083 0.078549 -0.010559 
-0.078996 0.079471 -0.007143 
-0.077561 0.074144 0.028962 
-0.075912 0.078621 0.034997 
-0.075174 0.067484 0.017946 
-0.075810 0.067413 0.013379 
