29.471399 -43.736500 45.532501 
29.904900 -41.106201 44.655499 
29.922899 -43.070499 43.558701 
30.046200 -41.576401 45.943001 
-57.906601 29.160101 -19.125999 
-40.790100 33.027100 -3.326000 
-52.535702 60.373901 -25.928699 
-59.227600 20.293800 11.637700 
-77.995499 2.048770 -26.194700 
-80.205200 0.937345 15.766500 
-57.039799 -22.551399 -34.100800 
-50.846901 -31.613001 -2.015430 
-48.311100 -46.815701 -45.010601 
-41.180801 -11.687500 -46.931702 
-13.792900 -8.615640 -27.833099 
-21.933399 -33.843201 2.443330 
-37.226501 -32.119099 -17.083401 
5.133090 -38.742100 13.459000 
0.114488 -26.196301 -16.068800 
-36.672798 31.708000 -30.686600 
-47.530201 15.759800 -48.406799 
70.853996 -30.991100 -20.400999 
35.599098 -13.373400 -43.247799 
70.540298 -9.136310 -37.861599 
56.662998 17.079800 -36.117699 
62.545799 -45.639500 3.135030 
48.727600 -43.337200 -16.028601 
-23.312099 30.165300 26.172899 
-45.075298 11.878800 33.630600 
7.739470 19.002600 -26.875601 
20.073999 -17.400600 -34.088402 
33.302200 25.757099 -30.782400 
38.362099 44.796001 3.975700 
17.881399 36.147499 7.910720 
56.219299 39.322201 -11.184000 
-13.058000 18.131800 -18.710800 
-4.589330 28.813400 -5.921880 
1.076440 32.628502 23.595200 
89.537201 1.469120 -28.711201 
84.743698 -2.220270 -9.970190 
50.523701 -49.130501 32.830601 
23.563999 23.828100 44.014702 
42.350700 42.126801 28.917500 
26.811701 36.235699 53.467899 
60.083900 36.293400 39.240101 
70.574898 32.223400 -8.868850 
76.072502 30.919001 18.541300 
-57.692699 -13.948800 21.596399 
-36.179100 -8.129860 40.615398 
-66.782799 -19.832100 6.398930 
-15.206300 -36.481602 41.652500 
-32.986500 -31.177601 22.931900 
3.114790 -35.997601 40.803398 
-18.331800 -19.318001 47.680698 
-8.462490 -7.375950 48.118000 
-7.567010 -29.822500 62.368698 
-8.944550 12.134300 70.645500 
-14.112100 -9.712710 69.926300 
77.184601 -33.613602 20.397200 
86.210602 -16.963600 5.939720 
49.550301 -34.243900 32.948502 
84.701698 9.244370 12.611500 
78.091301 17.962799 29.326401 
41.619701 9.855310 38.046600 
80.684898 -9.498380 24.963699 
66.349297 3.237780 25.556000 
-17.147800 8.475440 56.690399 
-21.706400 20.800301 47.010502 
8.926990 7.735160 54.364899 
0.762551 25.123100 49.385300 
21.761200 -39.149200 1.198100 
35.255199 -47.259899 -4.291890 
32.751301 -38.689999 19.211800 
31.203100 -49.680801 36.962601 
11.505100 -33.018700 35.237900 
22.491899 -34.396900 36.820499 
27.830799 -18.743099 48.136002 
33.087299 7.376290 49.359299 
